#!ascii version of surfaces/CC00055XX06/label/lh+rh.surf+labels-reduced.vtk
32847 65686
36.766899  -21.311800  9.629960  0
12.267700  -44.916302  40.858299  0
11.391300  -44.871601  44.819302  0
12.008400  -45.176601  42.502102  0
32.043400  8.810720  24.331400  0
32.296600  7.327400  24.759800  0
31.025700  7.511890  24.633600  0
27.256100  6.037620  3.317210  0
28.678101  6.741990  4.350530  0
27.271099  7.069460  4.564430  0
5.847660  -42.854198  5.518880  0
6.827290  -57.146801  22.762300  0
6.695770  -58.039501  21.341600  0
17.916700  26.748501  4.566030  0
18.807600  27.806101  6.512910  0
16.912201  -63.269699  25.033199  0
16.393400  -63.192799  26.346300  0
17.406900  -64.427200  26.191999  0
21.205400  29.886999  7.925140  0
8.572760  -53.897701  5.798930  0
2.977350  -52.835602  18.901100  0
3.878160  -53.629002  18.108801  0
8.179190  -55.437000  5.508930  0
4.600390  22.584999  3.709710  0
4.339850  21.920099  4.549660  0
3.371140  23.050501  4.230730  0
30.216801  5.595230  10.969700  0
30.049900  8.098890  10.611700  0
31.416000  7.749680  9.538370  0
33.066200  12.244100  14.430300  0
8.566660  10.209600  44.335899  0
34.430500  -35.636200  1.036030  0
35.900002  -35.338600  2.188930  0
34.561401  -36.752602  0.005331  0
27.203899  -5.865280  20.413900  0
32.540600  -13.504600  42.964500  0
31.552000  -14.702900  40.599300  0
28.459000  -6.864790  18.284700  0
28.537399  -7.562850  16.908100  0
2.509340  -51.996498  20.171400  0
2.458960  -53.609299  19.891600  0
3.417230  -51.559601  19.163200  0
7.042420  -42.815899  14.044000  0
25.370399  -7.440850  20.731899  0
27.824100  -6.063230  19.477400  0
38.615398  12.346800  14.473500  0
3.763150  -15.704400  44.559799  0
3.224870  -16.605600  41.510601  0
5.889760  -15.579800  43.419701  0
7.972750  -53.118401  7.653340  0
36.573700  -29.811100  36.124699  0
35.099098  -30.635500  34.977100  0
35.377998  -29.222000  35.216099  0
10.745900  3.284700  46.509300  0
10.741100  4.183210  47.760201  0
10.692400  2.057540  48.652599  0
22.785700  -39.417900  45.106602  0
11.108600  -44.757401  31.638100  0
11.957600  -45.134399  33.456699  0
10.384300  -46.168201  31.996799  0
17.069000  -17.751301  45.610401  0
3.933340  23.705099  8.995550  0
19.425900  -21.223499  -11.636800  0
19.323799  -20.646700  -13.234100  0
16.738899  -14.802100  -12.597000  0
5.932700  18.118000  -1.413580  0
19.158600  -30.263201  51.425098  0
17.034401  11.380300  -1.298130  0
35.295399  -4.320320  10.455100  0
25.890200  -9.139420  43.770401  0
24.856600  -10.384300  42.246101  0
25.946899  -8.806520  43.529202  0
11.654100  -60.308899  0.046410  0
3.392320  20.472300  -0.507199  0
5.320990  20.667101  -0.458854  0
27.461500  -4.482030  19.800100  0
3.212200  -34.164799  45.274601  0
3.534610  -35.449200  43.414902  0
2.207810  -34.292500  46.408901  0
2.338770  5.533260  31.935101  0
28.338400  -5.964400  19.359699  0
28.270500  -8.347970  18.119499  0
21.252399  -18.993999  48.163898  0
20.388399  -18.444099  47.304298  0
17.976000  -18.395700  47.278000  0
10.239100  -19.423800  45.092800  0
10.964300  -21.123301  43.609798  0
10.467300  -20.937201  45.084400  0
29.621000  17.459200  16.485201  0
28.495199  16.526899  17.526501  0
8.311070  -54.036598  39.095001  0
8.972670  -51.984100  39.353199  0
7.534140  -53.916000  40.321499  0
28.877399  -10.396800  10.026000  0
9.875770  -42.307301  44.407299  0
8.797570  -42.948799  45.061100  0
2.508720  20.507401  17.189800  0
3.586350  19.976801  17.152901  0
3.072990  -24.038900  20.186100  0
27.903700  -18.509100  47.264301  0
3.706230  -53.881001  25.690201  0
39.011398  -33.416801  20.352800  0
37.569698  -32.141300  21.633801  0
39.027199  -32.640301  20.406900  0
19.315399  31.486700  17.717501  0
20.009100  30.015499  15.136800  0
19.082199  28.946800  16.110399  0
14.172300  -41.573502  2.098110  0
13.088100  -41.424999  1.518860  0
25.628599  -10.986900  41.125801  0
25.961599  -10.442900  42.299301  0
7.145950  -57.637402  2.818750  0
42.077702  -2.222410  22.580000  0
18.524500  -63.020401  15.979500  0
40.408199  -10.331300  33.344002  0
39.763699  -11.009000  35.262699  0
1.484370  22.136499  18.157000  0
8.285820  27.924400  -5.930950  0
32.329700  -49.245098  8.283010  0
32.806499  -46.987701  8.420350  0
41.335499  -5.909040  8.116370  0
40.754700  -6.308600  7.391850  0
3.805900  -55.499401  29.515301  0
3.812290  -54.674999  27.667601  0
5.214120  -55.313999  28.750299  0
2.969120  -54.672199  29.505100  0
18.267599  -51.044498  -1.929060  0
18.350901  -50.430500  -3.180780  0
18.598101  20.092400  30.577600  0
18.976500  21.248100  31.690500  0
3.772130  27.822100  12.568600  0
7.204760  -47.524799  32.722401  0
7.288440  -48.208000  32.201199  0
8.037330  -46.392502  31.922899  0
18.256100  -17.161800  41.447498  0
19.431400  -18.303400  40.914501  0
28.754000  -46.169601  32.604198  0
28.503700  -48.594501  35.051201  0
15.403000  -18.306801  -6.177370  0
14.358300  -19.205000  -4.473580  0
14.648000  -17.945101  -7.570890  0
8.992590  -30.088200  50.840000  0
18.187799  20.940201  -1.435530  0
19.151899  21.777901  -2.335760  0
20.769899  -48.881199  42.106800  0
11.531000  -54.382900  20.090700  0
36.765301  -4.881460  11.497900  0
29.372900  -5.592830  16.925501  0
4.774590  13.848800  34.571701  0
7.774590  -51.265598  0.693480  0
20.703300  -40.041401  36.936699  0
21.631800  -40.458199  37.514500  0
21.077101  -41.357498  38.681801  0
22.753799  -41.175499  38.718601  0
7.568270  -61.584702  13.240900  0
34.903198  -46.357800  9.954000  0
6.534860  -61.908401  19.112900  0
15.256100  -25.745001  52.234100  0
30.062201  -24.096100  21.894300  0
14.731900  -50.073200  0.912144  0
7.691770  14.501200  38.710701  0
7.879150  16.468800  38.678101  0
6.361540  14.919300  37.871700  0
15.634800  -17.526699  48.014301  0
15.892800  -17.532801  46.695099  0
20.411501  -19.636600  52.445801  0
16.263100  34.349300  11.721100  0
1.279490  1.971260  20.801001  0
31.043900  -51.739201  27.986900  0
30.143801  -52.078899  30.269600  0
29.839600  -51.704899  27.863701  0
11.833100  -20.015600  2.304190  0
10.532700  -22.240299  2.454320  0
10.284300  -20.287500  3.421790  0
18.810301  7.167430  -6.064930  0
18.730600  9.595450  -5.329760  0
19.291901  7.519190  -7.012620  0
36.802399  -14.839100  20.304800  0
37.173100  -13.295600  19.184500  0
12.426800  -41.566299  13.768500  0
0.535067  -15.946200  49.929199  0
1.141850  -15.094900  49.570999  0
23.972900  -19.743601  15.907600  0
18.121300  16.609400  26.811300  0
7.530870  -46.276600  8.894160  0
40.502300  -3.915190  29.568399  0
4.753060  33.162300  2.749100  0
21.622299  25.749500  13.197200  0
21.958799  25.812000  13.666300  0
8.442720  -34.230400  0.956339  0
4.169960  -53.530800  24.662201  0
30.874001  -53.833199  12.237800  0
32.271099  -54.285801  13.993900  0
30.456600  -54.023602  15.780400  0
25.742399  -12.210000  31.348101  0
6.938290  -42.260899  40.231300  0
7.495640  -41.468800  41.268299  0
28.662201  -33.945000  22.520000  0
27.476801  -33.156601  21.562901  0
17.767200  -64.854897  21.407900  0
16.179899  -63.843700  19.876400  0
16.268600  -51.955399  37.428200  0
15.274700  -53.086800  37.763199  0
18.403099  -42.275200  41.768398  0
39.427700  -6.358430  6.764700  0
39.308800  -3.261070  28.025101  0
37.655800  -3.887960  21.891199  0
36.372799  -3.989200  23.498600  0
22.336100  -45.025902  42.788300  0
9.301620  11.090300  -3.866010  0
30.829500  12.399600  4.846290  0
28.600500  11.865000  5.600670  0
28.516300  12.034500  5.137910  0
23.607401  -47.978001  1.665110  0
24.552000  -47.847500  0.390907  0
24.757799  -48.998798  -0.659608  0
23.711000  -49.407902  0.547908  0
7.665720  -38.360600  13.770600  0
9.503620  -37.622398  12.520500  0
12.765800  -70.183197  7.331450  0
9.536760  -35.544399  11.309300  0
7.128190  -20.844801  35.900700  0
7.638640  -20.114401  36.908001  0
3.070280  3.992640  21.795401  0
2.119140  5.205980  21.777399  0
3.020610  5.602680  19.938801  0
32.251801  -14.658000  13.624500  0
18.045300  13.975800  37.685101  0
18.218100  13.110100  35.240700  0
6.162360  8.073160  37.585300  0
28.531601  -6.335210  2.651810  0
1.992280  -6.101510  25.350300  0
27.695000  -14.816100  19.099501  0
15.937500  -22.111099  2.109370  0
32.605900  -24.752399  30.181101  0
3.729120  8.695230  7.595730  0
2.691140  9.884870  8.217310  0
4.486130  10.740200  7.753340  0
32.367500  -0.617849  13.171000  0
12.396000  -45.941101  42.255299  0
13.008900  -44.572800  40.939701  0
39.697399  -28.557400  24.414200  0
36.778801  -30.556400  26.184401  0
38.311798  -28.060801  24.919300  0
4.558110  -33.494801  33.916500  0
2.688740  -32.734901  33.617901  0
2.362470  -34.452099  33.202599  0
3.484230  -32.067402  33.748001  0
30.969200  -53.860298  25.768499  0
30.735600  -53.021099  26.445400  0
30.065701  -53.994301  25.834499  0
6.380610  -39.935501  47.098801  0
6.211710  24.744499  -5.259870  0
5.085990  24.579100  -5.435020  0
34.367100  7.732480  29.153000  0
11.395400  -40.638901  16.118700  0
22.118799  -16.800100  37.575001  0
23.040701  -17.865400  38.887600  0
22.130100  -18.171801  37.784599  0
3.297800  6.843940  29.539499  0
28.717699  19.717100  22.252501  0
32.861401  -27.250000  7.739400  0
2.675630  18.213200  0.659923  0
16.654301  -58.359501  35.880001  0
17.416100  -58.069302  36.004601  0
16.272699  -56.741501  35.595798  0
15.979700  -18.262100  -7.152890  0
16.223900  -17.625200  -7.379710  0
1.137500  -44.738998  21.927700  0
17.902901  -31.502600  43.420601  0
19.858999  -31.609301  42.220699  0
18.605600  -31.628000  44.538101  0
6.104760  -36.542999  40.582298  0
23.981300  -50.973202  -0.014803  0
20.504999  20.356001  29.624500  0
31.020100  -44.356201  23.265400  0
17.131100  -57.159698  36.354301  0
16.432800  -55.624699  35.460800  0
16.453899  -16.851601  -8.093000  0
42.169601  -7.532820  28.579700  0
20.399900  -7.974350  -15.066100  0
15.747100  -49.818802  0.706257  0
15.168200  -58.820202  0.957531  0
15.562000  -58.882401  3.062020  0
16.073000  -59.892200  2.420530  0
2.019970  -36.395302  40.115101  0
4.364340  -12.254400  38.938999  0
6.905140  -11.781800  39.263802  0
11.660700  -46.585602  18.280600  0
11.520200  -48.133202  18.976101  0
30.685600  2.202940  27.958099  0
17.533501  -60.493900  15.698600  0
17.259600  -61.569199  15.640600  0
4.011180  -56.224499  23.675699  0
4.132480  -53.972099  23.826000  0
5.324990  -55.949699  23.250900  0
7.328920  27.099100  13.338300  0
39.834000  -26.542000  23.655300  0
42.408401  -26.259600  23.784901  0
6.865280  22.065300  8.575640  0
2.174870  -32.148998  51.861599  0
26.699600  -13.882500  7.386720  0
27.742800  -13.136800  9.173970  0
16.536100  -54.746300  35.914600  0
24.557699  -55.014301  14.190000  0
23.862301  -56.417000  14.431500  0
13.827800  -43.879700  20.170200  0
12.506500  -4.661250  -11.602500  0
2.566980  -49.845600  20.272699  0
5.843540  27.512400  13.796300  0
29.985600  9.352140  23.102501  0
1.023480  -14.849000  25.621799  0
31.920900  -24.049400  21.808500  0
30.160000  -24.574200  22.005501  0
29.311800  -25.445299  23.177999  0
5.775660  -58.988602  9.073610  0
32.774200  -2.718740  -6.163280  0
31.451300  -1.474910  -8.618810  0
22.223700  32.163898  1.406990  0
20.496401  30.044001  2.467300  0
19.798700  30.594200  3.056380  0
4.855070  22.130600  15.853900  0
4.513570  24.249800  15.582900  0
29.707800  -12.450000  22.039301  0
30.737200  14.539500  24.435400  0
33.011398  15.885300  23.360800  0
31.960199  15.220200  23.058701  0
31.461500  3.272460  2.347200  0
33.336300  4.148120  5.198970  0
31.393600  2.526420  2.196330  0
9.618130  28.063400  22.165701  0
30.526300  17.739300  12.319900  0
30.477501  18.183901  13.917000  0
15.556200  -43.275600  40.348701  0
14.580000  -43.229801  39.416401  0
8.256730  -12.879100  51.751099  0
10.407100  -11.691800  50.653999  0
24.039301  -5.940100  47.263302  0
27.486300  -8.046920  0.267429  0
28.711300  -7.410240  18.194000  0
2.969750  -45.280701  17.558100  0
5.410180  20.974400  15.861700  0
26.613400  26.288900  15.683000  0
11.961500  -41.179600  43.506599  0
30.011000  -13.707400  20.481899  0
32.476101  -24.203899  22.608700  0
34.250000  -21.039301  41.614601  0
41.320801  -15.537600  17.660999  0
15.542700  22.332600  23.000401  0
15.475000  22.095800  23.577400  0
23.523600  12.519600  -4.253110  0
25.083200  13.185300  -4.265560  0
9.190670  -49.403198  20.264000  0
28.762300  -14.503800  15.397400  0
28.166401  -14.348400  16.394699  0
19.957701  -25.359100  50.053299  0
7.288600  24.666500  -4.403800  0
35.739700  -26.272100  2.763430  0
2.077450  8.017250  5.052870  0
31.062599  -19.500099  24.166599  0
30.070700  21.729300  4.874770  0
33.459599  -16.013300  42.015701  0
33.044701  -16.258200  41.536301  0
31.201799  -22.828400  20.466700  0
32.532200  -22.780001  21.174200  0
5.288680  -24.946100  36.834900  0
2.016530  -25.031900  36.857601  0
35.128399  6.035960  9.918700  0
17.209499  15.575400  24.789900  0
37.667099  -22.252800  7.546990  0
38.603600  -21.455700  7.182820  0
19.795500  -43.950699  -3.788940  0
20.037399  -43.243301  -3.001450  0
26.448900  -16.058100  15.502500  0
21.406900  -28.333500  -10.056800  0
22.722500  -26.391701  -7.270200  0
17.010799  -26.979799  -4.321050  0
19.534000  -27.732100  -2.212630  0
19.752701  -26.760500  -3.018410  0
37.065399  6.241490  15.074000  0
38.196602  6.644670  16.070400  0
28.083900  -9.545110  17.881300  0
12.511000  29.347000  22.307600  0
37.691601  -28.676600  10.678700  0
1.181560  -14.643300  23.069300  0
1.810320  -16.400900  22.519501  0
0.939419  -16.617201  24.256201  0
29.763700  0.206248  0.974223  0
30.199699  0.047752  2.104750  0
1.679000  -31.777399  51.071499  0
2.216820  -32.806499  50.761902  0
23.629101  -25.038700  -7.833770  0
24.598400  -24.869699  -9.909000  0
2.697480  -20.834499  47.480202  0
17.643299  -29.102301  48.692501  0
18.808201  -24.705000  -4.747300  0
3.634910  31.512300  11.879300  0
5.328450  31.603500  12.396600  0
19.317499  24.364799  19.772699  0
17.941500  24.834101  18.610001  0
14.415000  -56.874802  29.111601  0
13.986300  -57.362301  30.651300  0
15.575300  -59.243301  30.379601  0
17.467899  -47.068802  15.446600  0
8.277240  -67.154297  6.402010  0
18.441299  28.901899  2.785720  0
17.181101  30.229900  2.092950  0
16.713699  27.965401  2.186430  0
27.328199  -48.864899  36.481499  0
25.160500  -47.541199  36.313499  0
32.978699  4.606130  10.119100  0
33.893799  7.002250  9.119220  0
30.597000  -23.217300  21.224899  0
11.397700  -3.249780  -2.974880  0
27.326799  -5.872790  -1.978730  0
21.765301  -31.274700  36.626598  0
20.619801  -31.511700  36.075298  0
20.869499  -32.146702  38.410599  0
32.716202  -13.605400  35.479698  0
42.258202  -2.808660  16.460199  0
37.174099  -23.324499  31.352200  0
28.428801  -24.635401  27.183500  0
28.831100  -25.643101  26.117399  0
22.042500  -42.046799  39.531502  0
22.968500  -42.654701  41.263302  0
7.106180  -36.012501  35.470501  0
5.750060  -55.977699  -0.150089  0
2.123310  -25.566299  18.929800  0
6.692810  -33.340302  17.056801  0
5.815410  -32.603901  15.005900  0
29.580500  -5.679010  17.300301  0
15.728800  -13.123200  -12.042300  0
13.607500  -12.726000  -11.623700  0
14.288500  -14.634900  -12.247600  0
2.462290  -15.005700  47.825802  0
1.690610  -40.496700  17.836700  0
1.065180  -39.819500  18.436800  0
1.827470  -39.230202  16.928200  0
25.882299  -29.025700  43.870998  0
6.324010  -56.509701  -1.182530  0
30.267200  -6.728250  12.285300  0
28.724400  -7.805700  14.114800  0
28.596001  -7.634730  12.840000  0
29.666100  -7.015350  14.454800  0
9.966330  -32.549099  20.640800  0
23.892099  -51.156898  1.286710  0
22.132999  -57.855400  26.873100  0
22.895800  -57.542999  25.270700  0
21.308901  -55.020000  25.192101  0
23.601200  -13.869100  39.219799  0
16.844101  23.430901  31.052500  0
30.327200  -51.757099  26.548700  0
31.474199  -52.871101  26.016100  0
22.355499  -12.386700  39.521900  0
13.792600  26.925699  -7.119590  0
10.538600  35.004200  14.407800  0
10.651800  33.695599  14.020100  0
20.011499  16.938999  33.768299  0
20.592899  17.774200  34.527100  0
11.587400  -11.382300  50.109699  0
14.116300  13.077000  -3.494120  0
28.201799  -12.960200  11.938600  0
28.674000  -11.494400  10.722500  0
29.592199  -13.207200  19.039301  0
17.073799  -61.036999  3.278950  0
18.044800  -61.422600  3.235090  0
32.612099  -14.400800  19.164200  0
30.240400  -13.361900  17.623899  0
25.018900  -40.345600  23.062099  0
26.112400  -40.413898  23.676600  0
26.413300  27.530001  20.452101  0
26.219999  25.872200  20.666700  0
29.722099  -6.204700  15.364700  0
28.235701  -22.693300  8.829750  0
37.940498  3.742470  27.247700  0
21.065901  30.973801  14.180000  0
20.470800  32.434101  15.660500  0
17.905399  21.058001  33.355099  0
10.604200  -62.317799  23.346399  0
29.687599  -13.632700  16.357700  0
2.103120  -15.274800  37.481201  0
18.276600  -31.254700  46.880299  0
23.081301  -14.949800  24.862101  0
23.684299  -17.261900  23.159901  0
22.309000  -18.392000  23.635500  0
24.619801  -60.284000  5.663550  0
36.401501  9.497900  23.591600  0
32.595901  -12.442900  13.945800  0
34.055599  -11.040700  14.119500  0
8.307700  -57.701599  10.414400  0
37.947498  -27.822599  9.218120  0
1.909660  -35.423599  46.679699  0
1.717850  -37.134399  46.703602  0
2.653670  -34.504002  48.581501  0
37.243900  -8.401610  5.320240  0
4.042190  -24.112499  42.966099  0
3.375610  -22.643700  43.344501  0
11.299300  -14.656000  -11.260800  0
24.934200  24.631599  23.851299  0
25.231701  23.834499  20.959299  0
24.528400  23.499001  22.523001  0
18.828600  -60.681599  3.872790  0
19.413099  -60.767200  3.232760  0
8.046150  -31.664600  43.634602  0
8.923690  -30.657200  43.836498  0
23.693899  10.028000  35.723301  0
22.057600  10.227600  36.724800  0
2.795160  18.943399  16.483000  0
18.411501  10.502700  -3.800170  0
18.018801  7.555210  -3.380300  0
3.929680  -40.968601  10.199000  0
6.770040  26.970400  16.130501  0
22.962000  -0.526079  -3.587670  0
31.091600  -26.330400  37.618000  0
31.174500  -26.480600  36.916599  0
29.076599  -25.985901  36.747200  0
7.637090  -43.224499  52.243198  0
16.113899  -61.992001  -2.358540  0
16.983700  -34.047901  47.494999  0
3.302940  -16.055700  35.810600  0
7.205200  -53.659500  23.587299  0
7.212850  -55.545200  23.275700  0
34.369900  -23.540899  22.587700  0
13.163300  -48.328701  7.299980  0
12.266200  -49.670898  7.617580  0
11.133800  -52.297100  19.879499  0
26.168800  3.719030  33.963001  0
24.403700  24.521400  19.367399  0
8.482840  -64.645203  9.335990  0
26.363001  10.461200  12.110000  0
29.135500  10.887800  12.625800  0
23.312401  -12.554100  34.113499  0
23.358200  -31.174200  36.702000  0
21.622700  -31.230000  34.573299  0
23.715599  -31.248100  35.868099  0
26.713900  -30.323299  12.950800  0
27.559401  -29.514000  12.328600  0
2.777820  26.236000  16.074499  0
1.702990  25.734900  17.169701  0
26.210600  -30.508101  12.222600  0
27.188101  -30.054399  12.414700  0
27.128300  -28.604200  10.131900  0
29.195801  -12.302600  12.744500  0
30.183800  -9.801320  11.961300  0
14.214700  -45.370499  25.294800  0
14.113400  -44.117199  25.829800  0
11.207000  -59.566101  14.666900  0
9.929890  -60.558601  15.140900  0
33.284901  -16.160801  -6.698390  0
21.087099  -6.299220  -16.495501  0
3.156100  -14.941700  46.535000  0
2.707270  -15.109300  45.547600  0
4.428810  13.427400  -4.184590  0
27.140699  -34.307499  22.628500  0
14.237600  -28.156200  49.796700  0
26.093599  -47.690300  -0.688961  0
26.326900  -47.121399  0.010504  0
13.291400  -21.884399  46.383301  0
40.758801  -36.000900  24.458799  0
41.032700  -34.573299  26.950800  0
37.863098  -4.619160  18.650801  0
30.400101  -20.604200  8.802160  0
35.083698  -20.450899  39.308498  0
22.423800  -18.846500  38.666599  0
22.894199  -19.284700  41.048401  0
24.161600  -18.273899  40.406601  0
32.909901  -31.019699  33.715000  0
34.423500  -31.384501  34.775799  0
33.540001  -29.444000  34.634300  0
34.423401  -22.259100  22.118700  0
6.920730  22.670200  3.570670  0
27.868299  -20.708401  46.751900  0
27.498899  -19.967600  47.269001  0
5.705830  -18.630501  33.474201  0
6.600450  -18.271400  34.409801  0
40.125000  -14.327000  31.660400  0
24.452600  19.212900  27.733299  0
25.064800  18.788500  27.966101  0
25.493401  20.104700  29.220400  0
39.414001  -37.824902  20.490000  0
39.188000  -40.038700  21.108900  0
39.981201  -38.408001  19.906099  0
11.176100  -39.650501  42.790901  0
9.071290  -39.959801  40.903400  0
10.329000  -40.032799  42.114300  0
29.726400  -30.810200  43.565800  0
29.098101  -31.812401  44.138699  0
2.070400  -17.145300  20.734900  0
20.028400  -45.478500  45.453602  0
13.067900  -32.614899  -1.499440  0
12.810800  -33.929100  -0.723613  0
30.847601  -16.717699  40.343102  0
27.733299  15.466700  29.903999  0
7.683480  -59.081001  26.661800  0
8.391690  -60.194401  25.807800  0
36.028900  -29.572001  11.108600  0
20.471600  -29.741699  -7.869540  0
21.746500  -27.168800  -7.444300  0
35.073399  -44.477001  22.120501  0
36.251099  -44.017799  22.462999  0
32.658798  -18.814199  31.427700  0
33.722099  -18.262400  32.067299  0
0.924780  -13.791900  28.822100  0
1.244610  -15.053400  27.836000  0
28.766500  -53.005501  31.333799  0
26.501699  -53.539600  31.813700  0
29.215900  -52.018299  29.312599  0
25.681499  24.879801  5.760580  0
25.622900  24.882099  6.735190  0
25.451200  23.005699  8.181630  0
25.114799  -31.924900  37.641899  0
0.955166  -4.404320  30.575399  0
1.215550  -4.017980  29.495501  0
1.734530  -6.407950  30.221399  0
2.203200  -49.731800  27.113199  0
25.392599  -42.102402  23.472000  0
36.738899  -44.888199  21.087900  0
23.472099  15.575300  23.632900  0
17.085600  -62.236900  24.736799  0
1.507370  25.877899  18.979500  0
17.111601  -3.255520  -5.271020  0
9.503970  -49.789700  12.281900  0
21.478901  -32.387402  44.000198  0
19.395300  -32.036598  46.570301  0
16.479200  -65.227303  16.590200  0
33.567799  16.108101  25.012800  0
33.661800  16.098600  23.739000  0
19.132799  -25.262699  47.188900  0
23.811100  -20.751801  24.126801  0
23.179199  -19.643900  23.787500  0
22.927200  -21.543900  24.537399  0
31.550400  -47.650902  33.313099  0
24.082001  22.879700  22.630600  0
23.182301  24.116100  24.677299  0
32.597099  -6.031940  9.553980  0
14.878100  -2.035170  47.296700  0
13.838000  -2.510190  45.808601  0
12.436200  -2.696030  47.045200  0
21.357300  -61.225300  17.344200  0
20.374701  -59.155899  17.232500  0
22.624100  -61.237301  17.968800  0
16.182199  23.600800  21.616100  0
16.638500  23.399900  22.024599  0
27.217501  -34.390099  22.153700  0
27.659000  -10.737700  37.571400  0
4.096470  -20.321400  45.424599  0
34.966999  7.417550  29.903700  0
2.138660  -39.692101  37.190498  0
11.646000  22.564600  29.701799  0
2.748190  -36.340099  43.726501  0
28.884399  -28.415001  42.742401  0
29.409401  -29.438601  43.853100  0
15.938400  -2.291530  -11.008500  0
17.695101  -2.474100  -9.812460  0
30.780199  -37.129002  17.222099  0
32.923100  -35.757702  19.049000  0
16.402100  -52.632000  36.609100  0
15.294000  -52.838501  36.349998  0
9.923140  -19.576401  45.286201  0
10.261600  -21.040400  46.970100  0
10.083100  -20.685101  44.494801  0
11.538900  -51.082401  26.874399  0
10.233700  -51.402199  29.644300  0
10.179400  -52.382000  29.464199  0
24.465000  -23.980700  23.830601  0
25.444901  -23.758801  23.108101  0
2.468660  3.368480  -2.152060  0
3.268570  0.035168  -3.435230  0
3.364690  1.238470  -1.858730  0
29.858601  -46.644100  8.633000  0
29.954000  -45.896702  8.960510  0
31.391701  -45.993900  9.068150  0
24.911800  -51.523399  -1.072290  0
25.791800  -51.563702  -2.275250  0
24.356100  -52.778599  -3.220050  0
13.506300  -49.780800  18.939100  0
32.932800  -21.597900  20.660101  0
20.045000  16.622900  -3.625810  0
19.550900  17.531799  -4.211750  0
43.525600  -20.367100  16.357500  0
43.663300  -20.142700  14.289200  0
4.837600  -27.291700  18.035900  0
10.889800  -42.627201  43.432098  0
15.144400  -41.651402  50.637798  0
1.723930  -18.383301  37.395401  0
2.094020  -17.544701  39.181000  0
32.001301  -27.179800  2.590780  0
31.362200  -26.998800  2.141190  0
8.132600  -52.498798  0.894432  0
11.096100  -49.491199  27.381201  0
10.204100  -49.070801  28.079901  0
10.277500  -50.249298  29.113600  0
14.804500  -21.011700  45.853901  0
22.058300  -30.953800  36.905602  0
19.612200  -31.790899  37.201900  0
20.967699  -30.882099  35.065800  0
18.823400  28.588800  14.564700  0
17.504000  28.652901  15.955500  0
16.238400  27.877600  16.926100  0
12.396000  -46.014301  27.136000  0
8.648790  10.410100  27.728100  0
19.645201  -52.395100  1.089910  0
18.422600  -52.544399  2.459180  0
6.358540  -50.202801  1.807940  0
24.512600  -28.060400  41.296299  0
3.703490  -46.091999  8.139970  0
30.205099  -29.141199  11.549700  0
13.281200  -15.124100  -12.085600  0
18.372200  25.806601  18.693300  0
22.864901  -41.835201  45.782700  0
12.012800  35.480900  13.434800  0
15.857100  -58.065701  -1.417450  0
15.935700  -58.145100  -3.333730  0
15.678300  -59.051498  -1.608730  0
38.271000  -9.250140  30.369400  0
36.399502  -10.216600  29.139400  0
36.259998  -9.972960  30.499100  0
0.883102  -32.691502  30.591400  0
1.132620  -34.719799  31.388399  0
3.193520  2.354700  -0.464544  0
29.310101  -36.991299  15.766400  0
28.375299  -54.652500  10.904900  0
33.203800  -22.476200  21.565201  0
33.768501  -21.495701  21.997999  0
14.037500  -43.301498  27.638599  0
30.502100  -38.954800  22.203699  0
10.078800  -44.814098  24.804399  0
9.990820  -41.255100  24.184601  0
11.606300  -42.842400  24.565001  0
4.622330  -55.720600  15.203700  0
5.748600  -56.003300  13.883200  0
12.438100  -42.390701  12.329200  0
9.417040  -42.709301  12.006300  0
32.541801  -19.340799  33.783798  0
32.205200  -19.540800  35.908199  0
32.222301  -20.092899  33.891701  0
31.273300  -18.507799  8.175530  0
29.079599  -33.556099  21.093100  0
30.825600  -34.441700  21.187599  0
11.551800  -56.197601  18.965700  0
11.594200  -55.005501  16.530899  0
27.063601  -27.058100  43.770901  0
16.235001  -70.028297  2.842260  0
24.488899  -19.262600  23.491899  0
22.937000  -19.138100  22.955900  0
36.677299  -22.874800  26.330000  0
4.438200  -6.919510  29.980101  0
23.443600  -52.282501  -1.000520  0
4.525310  -37.499199  30.451000  0
19.026199  -39.330799  36.460602  0
31.762600  12.247500  4.183150  0
21.528400  -4.275320  39.858898  0
21.792400  -3.476040  37.713001  0
20.378799  -4.948430  38.377399  0
20.794500  -4.197830  36.685501  0
31.436300  -7.899070  13.292100  0
11.686100  -44.698700  30.856300  0
10.999100  -45.927200  31.429001  0
11.597400  -46.278000  29.217600  0
2.882640  -48.441002  13.629000  0
29.970900  -21.585899  40.614799  0
28.132401  -14.174400  13.515100  0
7.139200  26.391899  -5.929170  0
35.182598  -9.413120  -10.400900  0
33.310299  -7.612650  -12.655000  0
34.990799  -7.943610  -12.273200  0
29.175100  -25.625000  43.796902  0
28.200500  -26.811300  43.190701  0
9.257070  -56.169899  13.678500  0
20.676901  -4.222350  35.619801  0
29.841499  -46.263699  -1.986480  0
11.700400  -46.331100  25.461100  0
40.654701  -10.012400  28.542601  0
40.558300  -10.266500  27.916401  0
33.028400  11.202800  13.557800  0
31.205099  11.036100  13.672200  0
20.502600  -8.485510  -15.090800  0
30.285500  -50.971298  1.215060  0
28.698900  -50.501701  -0.872833  0
23.110399  -15.046600  26.253500  0
17.365700  -31.531601  40.764000  0
23.937901  -22.701300  24.181700  0
28.109800  -28.182199  9.581300  0
28.783899  -28.548000  10.714000  0
28.536800  -31.705200  41.471500  0
29.343000  -12.124000  -13.766600  0
28.449100  -33.496300  19.615101  0
34.448299  0.011468  13.467700  0
8.689170  16.248199  -6.442520  0
34.844101  3.801990  23.620001  0
36.625000  4.749830  24.217300  0
35.419701  5.158950  23.754200  0
9.436230  28.216101  24.000799  0
32.301201  -43.367100  16.170099  0
33.069302  -43.958401  17.326200  0
33.270599  -44.419498  16.079000  0
16.514999  -4.922520  39.891899  0
26.534401  -28.778500  9.264470  0
29.631599  -0.012789  -1.498630  0
11.214700  -7.967030  -10.135600  0
28.880199  -57.346199  7.188470  0
29.349899  -57.122799  6.688620  0
31.044600  -36.251301  17.766399  0
30.662600  -37.038502  16.299200  0
33.382000  -35.973999  18.021999  0
14.153400  18.304399  -9.516290  0
15.879200  17.254999  -8.127110  0
23.050200  -30.727400  36.286999  0
24.252501  -30.385900  36.476799  0
11.012400  -46.850399  32.196499  0
30.147100  -9.056780  38.757999  0
28.867901  -9.379660  40.121101  0
37.963299  -7.412580  5.564220  0
33.003700  -14.024100  21.631901  0
2.592600  -52.202000  23.749800  0
22.748699  -28.029499  47.584801  0
23.427200  -27.424601  48.222099  0
12.608500  -49.791401  26.144300  0
11.461800  -51.144798  27.663601  0
15.912400  -48.386600  0.454840  0
6.023160  -43.984501  4.839100  0
30.178400  -52.642300  27.770901  0
29.876301  -53.462101  28.614401  0
30.111401  -53.897202  27.672001  0
10.493900  -51.366199  29.984600  0
11.459000  -49.622002  27.408001  0
34.899899  -21.486601  21.756800  0
35.320499  -22.099300  23.708300  0
25.784300  -22.832399  22.387300  0
25.083099  -24.918400  23.211800  0
32.936501  -19.903700  20.854000  0
34.160702  -18.488600  20.310301  0
34.714298  -20.563900  20.800400  0
32.641998  -20.857700  21.513000  0
10.291600  -29.490900  37.547100  0
33.545601  6.385980  7.007210  0
4.200550  -51.244598  4.857980  0
4.616130  -50.995201  6.155730  0
14.664100  -17.070801  -8.991880  0
13.596600  -16.605801  -10.836000  0
16.265800  -16.183800  -9.451520  0
33.832199  -25.540600  25.247101  0
5.936030  -56.171200  29.435801  0
43.621899  -18.480900  17.147400  0
43.877102  -20.164700  17.761999  0
43.182800  -21.390200  16.956499  0
11.300300  -21.727699  44.959599  0
12.334200  -43.577702  24.967400  0
20.261900  -54.649502  12.247200  0
20.050800  -55.218399  11.366400  0
20.647200  -56.336800  9.260070  0
22.072701  -20.334499  23.969999  0
25.651100  -30.256901  10.368300  0
19.571800  -54.709900  15.352200  0
32.104301  3.596190  8.381730  0
19.792700  -13.919700  36.295399  0
23.664700  -27.118299  39.622898  0
24.824600  -25.610201  39.181000  0
9.799340  -63.420601  24.669800  0
15.144000  -3.297100  -15.450800  0
18.845699  -42.133598  46.459099  0
0.709002  -19.766701  22.798100  0
20.383699  -54.284302  25.197701  0
19.430700  -56.187000  26.780300  0
20.628201  -56.176201  26.562500  0
27.976601  -53.235802  9.594250  0
26.792200  -51.255199  9.500960  0
26.940300  -51.878300  10.147200  0
41.808800  -29.322300  23.271400  0
41.461300  -27.494699  21.961500  0
20.950100  -48.941101  -0.391182  0
29.760900  10.937500  13.857300  0
28.738199  10.057600  12.225900  0
30.325701  10.841200  12.787700  0
1.674640  19.170500  21.900400  0
31.496799  -5.759740  12.937800  0
32.205601  -7.089030  12.804900  0
3.508650  -57.925499  13.644200  0
30.384199  -37.348999  15.935800  0
29.505400  -36.728500  14.121200  0
4.253410  33.408699  9.794460  0
4.969250  -2.321100  34.049900  0
12.715200  30.090300  23.021500  0
6.821430  22.495800  -5.236860  0
6.821780  23.177299  -4.898170  0
9.111700  -25.762600  35.817001  0
10.247400  -27.286100  34.765701  0
32.868401  -12.611400  15.937900  0
31.550301  -13.528300  17.207701  0
23.431601  -3.436120  38.764400  0
22.007299  -3.982480  37.679901  0
23.033600  -3.615550  39.927299  0
33.348301  -10.967200  15.737300  0
35.851002  -10.226500  16.031200  0
22.228100  -3.839680  36.683300  0
1.580920  -32.978802  19.323099  0
3.170190  -33.477501  17.316601  0
16.680099  -53.785301  24.243099  0
17.881300  -54.208000  24.435400  0
18.411600  -52.922600  23.186199  0
27.605101  -7.565770  12.349200  0
6.634640  -46.654202  42.388000  0
31.681900  11.436500  13.882700  0
25.896000  -6.069140  -17.598499  0
26.019400  -7.847640  -17.132299  0
1.262150  -37.588501  27.642200  0
1.162570  -39.141300  25.312000  0
30.979401  -31.325100  13.045200  0
31.433201  -30.054199  12.237500  0
28.956699  -30.317400  12.776600  0
15.810100  -49.546200  12.945100  0
32.575401  -27.677299  9.511790  0
34.032799  -27.385799  9.163480  0
34.172501  -28.625601  10.523400  0
3.454270  29.818899  12.415300  0
2.630100  28.559799  11.662200  0
21.905199  -4.125390  34.560398  0
5.819000  -14.334000  52.248299  0
2.074130  26.793800  22.281601  0
3.544740  25.936300  21.474501  0
2.912700  24.719000  22.145800  0
26.118000  -16.357800  12.760100  0
26.220100  10.722700  11.243200  0
28.176001  10.457300  11.945400  0
26.555799  -25.158100  21.078699  0
13.938100  -18.760401  -3.468500  0
13.251000  -19.064800  -5.257840  0
33.111801  -30.774200  33.410301  0
35.150799  -30.870001  34.316700  0
35.071301  -29.765100  34.737499  0
31.033001  -4.866530  13.568700  0
28.780199  -37.166401  17.640600  0
37.199001  -42.870499  26.324100  0
36.021000  -42.391201  25.092300  0
35.186501  -40.768501  25.884100  0
25.977900  10.932100  36.198101  0
20.244801  -5.432260  38.070999  0
10.091600  -16.517200  34.724098  0
8.636590  -15.439500  35.132900  0
15.776800  -47.865799  15.168400  0
13.837400  -46.540798  24.820101  0
13.215700  -45.806301  25.449200  0
32.516201  -21.457001  20.994101  0
29.695400  -30.033600  13.357400  0
22.522900  -19.280899  19.025000  0
35.686901  -12.713200  32.251499  0
28.431700  -24.347000  21.316900  0
31.999599  -32.809101  12.857500  0
32.594501  -31.136000  13.125300  0
34.378601  -31.450899  12.677300  0
34.388401  -32.885601  12.764100  0
26.484301  -19.356100  26.808701  0
25.955700  -19.480499  24.015200  0
27.509501  -18.939699  25.127600  0
22.149599  -19.099800  40.724400  0
20.535000  -19.321899  38.906799  0
21.596600  -18.934799  38.632599  0
20.895000  -19.009001  40.995201  0
16.848400  -64.021004  15.771400  0
16.728500  -62.667500  15.934900  0
26.658899  -25.121700  21.809401  0
3.230970  29.872700  22.902201  0
16.356600  -54.952400  36.390800  0
16.313601  -55.953999  37.029900  0
14.395600  -52.326401  35.618500  0
6.385890  -42.963902  9.736460  0
4.563720  -42.656898  10.417600  0
4.346310  -42.035000  9.561370  0
9.623910  5.779970  45.363899  0
7.672160  6.050420  45.338699  0
23.096201  -20.213600  17.347200  0
25.874399  -41.157600  24.146799  0
25.317600  -42.009399  24.598801  0
38.427502  -4.590680  19.615000  0
26.129900  -38.805698  4.413270  0
25.077101  -42.021999  6.240970  0
24.799999  -41.360100  5.743540  0
26.520800  1.995630  30.945900  0
24.334200  0.076913  30.001900  0
33.086498  -29.959600  12.094000  0
34.025002  -31.128901  12.517300  0
9.423190  -47.977100  27.927299  0
10.106700  -47.186699  26.746099  0
10.963300  -46.951900  27.569599  0
33.738098  -41.499500  23.847500  0
32.769600  -41.755798  23.862301  0
34.210499  -40.322899  22.725901  0
33.034401  -4.278190  -6.175830  0
15.634700  -18.913000  43.776299  0
15.352000  -18.282700  42.711102  0
16.245399  -17.745001  44.978600  0
3.465100  -45.947498  36.141499  0
3.789040  -47.617901  37.142502  0
13.974900  -20.316900  -0.712112  0
13.004000  -21.769400  1.044580  0
18.190201  -9.207180  -17.576099  0
18.999901  -8.701570  -16.423599  0
31.056700  -36.418201  14.469600  0
35.275101  -22.677099  23.320200  0
37.815601  -21.134199  21.948299  0
24.325600  -19.936600  24.362101  0
19.046900  -17.515800  42.303600  0
25.814699  -19.647400  23.098600  0
32.141800  -10.999900  15.192500  0
22.669300  -17.760900  37.536499  0
21.771099  -19.147900  21.296400  0
24.833099  -30.056101  36.251099  0
27.471600  -29.709101  36.806000  0
10.895700  19.940701  6.839940  0
10.397800  21.460300  9.539480  0
10.742500  21.321699  8.370010  0
26.022900  5.911530  3.892730  0
26.537701  6.315810  5.000540  0
5.992890  -35.278599  42.534000  0
7.263200  -33.400700  42.672199  0
7.132090  -34.487499  42.257301  0
17.444901  -19.275000  2.130540  0
21.322300  -33.281101  40.752399  0
8.584760  -7.852300  46.872200  0
8.793210  -8.339660  47.551998  0
24.085199  -17.730801  18.212900  0
8.235180  22.216000  -9.349530  0
29.915199  -0.797879  3.372550  0
24.007000  3.067320  33.100399  0
22.779499  -20.450300  24.630400  0
9.320620  -49.286598  29.321400  0
29.777300  -9.364550  9.865420  0
33.435902  16.228399  8.993590  0
32.198200  16.426701  9.768320  0
24.084299  0.167624  29.596901  0
25.900700  1.377470  30.082701  0
8.988750  -43.570301  51.974300  0
11.310200  -1.689420  44.402100  0
10.786700  -1.081180  44.835098  0
1.018040  -27.237000  41.807899  0
3.004420  -56.159000  19.271799  0
21.815500  -26.114300  42.733799  0
23.638399  -32.290798  33.252800  0
25.648500  -34.527000  34.029900  0
24.877399  -32.046001  35.627201  0
24.756300  -11.896800  24.030701  0
24.690800  -13.107000  24.107000  0
29.865700  -28.945000  40.351200  0
24.288401  -3.630580  37.029900  0
25.303499  -3.874030  36.190399  0
23.978600  -3.177760  38.477901  0
36.528801  -20.893801  21.779900  0
26.154600  -15.717800  22.093100  0
26.229500  -18.014900  22.483400  0
10.614900  -49.812000  19.140900  0
10.521400  -52.191502  19.481100  0
14.075600  -43.346401  28.497101  0
35.027199  17.320900  10.414500  0
33.855801  16.580601  9.687930  0
7.158190  32.630100  18.413401  0
5.659050  33.679100  17.779800  0
2.823180  3.537490  22.294100  0
1.712580  3.661460  23.829500  0
2.374430  4.433010  23.582199  0
26.903999  8.396210  12.042600  0
25.403299  10.080400  12.692100  0
25.339300  7.719070  12.878100  0
26.241400  10.042800  11.861400  0
25.096399  26.219200  6.336610  0
24.846001  26.243401  5.395600  0
21.147301  -18.674801  43.422699  0
19.413900  -17.182899  43.569000  0
17.947300  9.123640  -1.967970  0
18.577200  10.491100  -1.779850  0
18.562500  8.649510  -3.682400  0
24.897301  -20.752899  23.566401  0
27.215300  -21.362400  22.018600  0
23.461901  -18.380199  17.566799  0
23.750999  -17.508600  18.702801  0
9.967670  -48.333900  31.874001  0
9.883210  -47.838501  30.865700  0
9.771400  -49.432999  30.504700  0
9.593870  -41.261902  43.596199  0
23.448099  -18.323999  19.727600  0
38.256100  -19.436800  30.342501  0
37.787899  -18.468300  31.678900  0
38.491699  -18.869200  31.263599  0
40.154701  -21.315001  4.997230  0
28.950600  -12.836700  45.500401  0
37.959999  3.131450  26.267000  0
35.960201  2.675540  24.974501  0
21.359699  -43.211601  39.304600  0
28.023600  9.838230  6.641770  0
30.055099  8.751170  6.203150  0
27.998400  8.534480  5.667600  0
29.558800  9.652480  7.137740  0
9.314190  -40.632301  1.557090  0
10.951700  -42.293301  0.960225  0
25.838499  -24.812300  39.116798  0
22.023399  -19.037500  22.916300  0
36.265800  -22.051800  23.553499  0
24.990900  -4.532850  35.647099  0
31.316900  -17.632700  6.899490  0
25.816299  -14.487500  22.511700  0
8.555700  -32.523300  17.821199  0
19.602400  -46.285599  29.863899  0
20.820101  -48.119400  27.412901  0
19.199100  -45.473499  30.505301  0
25.987301  -16.285200  19.560101  0
39.343102  -15.424400  19.675600  0
27.907000  -40.400600  24.054501  0
30.376801  -42.418900  24.156000  0
36.171101  -21.752100  25.294399  0
20.509800  16.755100  26.357901  0
10.155200  -14.238700  34.216999  0
9.439870  -14.364800  33.900700  0
15.099000  17.876499  29.542101  0
18.523001  19.057800  28.056601  0
26.111601  -13.636300  22.971901  0
26.986700  -16.139799  21.447701  0
26.224400  -8.425130  19.872200  0
17.101400  -19.560301  1.028620  0
5.828590  -45.274300  18.142799  0
27.881701  -8.494780  16.209299  0
29.234600  9.990070  10.352600  0
27.346701  10.713300  9.591860  0
26.380100  10.107700  12.576600  0
34.632999  -19.933201  16.015699  0
34.518501  -20.288700  16.997400  0
32.774799  -21.345699  16.949600  0
23.295300  -57.589401  14.733100  0
21.892300  -56.971199  15.097300  0
23.430799  -56.260502  14.740600  0
16.963699  -16.941900  43.276199  0
17.635300  -16.946501  42.919800  0
17.889601  -16.892500  45.158298  0
19.748501  -42.717098  32.460701  0
20.198299  -42.678200  32.559299  0
11.622200  -47.436699  26.748600  0
9.894400  -46.081501  7.710940  0
26.546499  -8.108080  20.195999  0
26.529301  -9.607120  20.451000  0
8.846070  25.031700  26.453100  0
8.438460  25.400600  26.582899  0
9.632990  5.057810  42.915699  0
11.011900  5.138980  43.550201  0
9.561660  5.691150  43.646801  0
27.358299  -23.201700  21.285500  0
29.174801  9.978640  8.061210  0
27.794300  -19.171801  25.845900  0
29.313801  -23.110001  19.960800  0
29.809799  -22.005800  20.868000  0
27.624901  -24.051800  20.392599  0
29.635700  -22.596201  16.666700  0
28.469299  -18.655199  25.855200  0
28.357201  -24.125401  20.342600  0
35.461300  -11.192000  4.473320  0
33.654800  -10.945000  3.640170  0
31.258600  -25.709101  9.925030  0
33.517101  -24.695299  9.963210  0
33.657001  -25.254101  9.273210  0
33.786701  -26.084299  8.894550  0
21.007601  -13.597500  37.318001  0
22.484501  -12.373800  38.349499  0
10.551900  -21.041700  43.449299  0
30.422701  -46.246201  29.440800  0
33.260201  -48.591801  29.139400  0
30.281200  9.506010  8.134260  0
31.525900  8.481850  8.214730  0
31.190001  8.623560  6.952830  0
8.094940  -55.111099  18.124701  0
8.913570  -25.593000  35.425098  0
8.111390  -28.339800  37.269402  0
9.964550  -26.312500  34.139400  0
10.340500  -48.608299  28.659201  0
30.877501  -8.940410  29.818800  0
28.385700  -9.515880  30.546499  0
12.582200  -47.992901  26.029699  0
13.902800  -21.670900  43.285900  0
13.816100  -22.104500  42.540298  0
14.759000  -21.137100  43.003700  0
27.943100  -19.417400  37.307899  0
25.416300  -10.760200  24.026300  0
33.876202  -21.056900  16.414499  0
32.811901  -21.718100  17.102301  0
13.286900  -42.876900  29.281200  0
26.213699  -10.945200  38.647400  0
27.804701  -8.147890  2.692280  0
27.457199  -12.877500  22.107100  0
26.992201  -13.870300  21.576700  0
1.946430  -17.430401  40.717999  0
2.778860  -17.174500  41.537701  0
18.212900  -25.418100  46.853001  0
16.030800  -46.362000  13.284600  0
32.546799  -25.916500  28.101200  0
5.999550  -46.423100  44.282700  0
6.403430  -45.083401  43.522701  0
35.110600  -19.835100  15.521300  0
9.339820  -29.663200  38.705200  0
38.460701  -20.924299  29.390600  0
19.055901  -26.735500  49.051601  0
19.623100  -28.573799  50.132000  0
26.957500  -31.520100  13.543800  0
26.856001  -40.401798  3.596210  0
25.812500  -39.523998  4.440060  0
4.579470  -46.723000  8.029760  0
26.786400  -11.841400  24.386000  0
30.096399  -25.775101  25.379400  0
30.917700  -9.539440  30.293301  0
11.386300  -46.372299  26.370701  0
28.955099  -23.887699  18.454300  0
12.874200  -45.348999  27.986401  0
33.649502  14.595700  18.984800  0
35.998402  13.673200  19.452000  0
13.663500  -35.395302  8.644060  0
11.383200  -34.167400  9.062670  0
8.841280  -28.152399  51.500900  0
4.561940  4.485170  20.479200  0
12.699400  -20.702299  -1.067810  0
21.419100  -12.583000  35.927200  0
31.436501  -53.906300  11.242400  0
29.890900  -53.906700  11.294300  0
10.553700  -49.680000  6.672620  0
11.461900  -48.076302  6.298490  0
27.728901  -14.237400  16.249800  0
26.395901  -8.919860  19.094400  0
10.305500  -47.465500  29.848801  0
26.316099  -15.475900  17.194700  0
28.831301  1.841530  35.503502  0
27.971100  1.690040  34.472401  0
28.749001  -18.388201  37.140701  0
28.370800  -19.814501  37.439400  0
29.445700  -19.367901  39.767399  0
30.038401  4.450980  22.443701  0
30.286600  4.648390  23.064600  0
16.622400  -29.012300  -0.113065  0
18.596901  -31.970100  1.918120  0
37.389400  -26.750601  30.703800  0
26.889601  -19.773001  24.032301  0
12.587500  -44.070400  29.323500  0
24.175501  -17.565100  39.388401  0
26.914499  -16.565901  43.459900  0
33.227100  -6.540570  12.347300  0
33.049599  -4.542240  11.421500  0
30.822001  -1.033880  13.485100  0
31.674801  -1.112410  11.777000  0
8.557920  -24.505501  35.041500  0
16.497900  -21.156700  1.698310  0
27.775801  -14.134200  20.744301  0
24.876301  -42.881901  26.056900  0
17.972700  29.026300  16.800301  0
12.766800  -18.608801  1.602570  0
32.595798  -29.841801  12.618500  0
19.076099  30.469400  11.634100  0
18.538099  29.226101  12.261200  0
19.053499  29.496500  12.840300  0
1.318580  17.973600  23.898001  0
10.490600  23.700600  12.787600  0
10.728400  24.100800  13.535200  0
28.625601  -21.072300  21.788300  0
35.301800  -18.853399  15.046100  0
26.279800  -15.397600  21.357901  0
31.125200  -13.695200  15.594600  0
26.995899  -18.906900  23.459101  0
24.752300  -36.165100  -0.099175  0
25.115601  -36.902599  1.204790  0
25.685101  -11.299200  39.991001  0
24.896601  -11.904100  40.039299  0
25.743601  -11.969300  41.455399  0
25.502600  -13.232700  41.441601  0
8.701210  -4.700930  36.414501  0
11.066000  -17.613300  -2.271710  0
12.848400  -18.198200  -3.028030  0
28.452299  -22.171101  21.429501  0
29.804199  -22.100100  21.291401  0
5.828490  -21.279499  43.180500  0
15.570900  -20.534201  41.683601  0
6.480560  10.099700  17.039200  0
2.446940  -2.967810  34.957401  0
3.781640  -3.215680  35.417900  0
35.261398  -5.259770  18.625099  0
34.439301  -5.131560  19.901100  0
29.090099  8.805210  10.435000  0
29.970800  9.190960  9.246670  0
27.818100  9.751200  11.000400  0
31.488400  -13.734800  14.783900  0
27.737600  -18.526100  22.814301  0
22.210100  -19.139700  37.731800  0
31.805401  -25.323500  28.313000  0
2.406760  -43.988098  34.790298  0
28.862400  -19.106701  23.533600  0
28.905001  -19.884899  22.285200  0
11.577700  -48.138599  26.612101  0
30.128500  -17.164700  23.127300  0
30.958700  -17.651600  21.806801  0
2.808730  7.105920  19.196501  0
2.307180  7.636660  20.118700  0
37.927700  -21.242201  23.091700  0
20.841000  -41.380100  35.676300  0
34.168900  -29.875999  11.736000  0
36.032600  -29.649099  10.698900  0
6.479370  -59.877499  11.238100  0
26.493200  -6.700880  11.080400  0
20.335600  -47.898399  39.303699  0
21.680799  -47.064701  41.474201  0
21.278200  -46.285400  40.212898  0
6.916990  -40.396000  15.730300  0
8.429130  -14.518800  35.438400  0
9.548010  -14.438100  34.789200  0
9.901580  -22.391800  45.938801  0
30.810699  -11.663500  24.193300  0
31.425400  -19.962400  22.671400  0
25.944300  -2.276570  18.720100  0
10.192200  -29.122700  35.882301  0
32.603600  -36.266899  15.347100  0
27.928301  -30.579201  14.601800  0
28.077299  -30.353300  15.089000  0
30.964001  -23.743401  10.636800  0
32.651798  -22.478901  10.212200  0
33.636902  -23.584499  10.668500  0
15.833400  -37.155701  44.290600  0
15.221800  -34.372799  42.279999  0
14.834500  -34.152000  42.311100  0
31.340799  6.144330  24.059299  0
30.472401  6.305830  24.518101  0
31.778099  5.015040  23.115801  0
31.137800  -7.811970  7.901980  0
30.047300  -6.926120  6.364310  0
29.476900  -8.799230  7.456180  0
10.638300  -47.842400  26.855700  0
33.427898  -24.248301  9.544620  0
35.500999  -19.537100  19.277901  0
36.205502  -19.541401  19.975300  0
19.148399  -54.515900  14.214400  0
19.546801  -55.927399  15.873600  0
19.813101  -55.014301  12.863100  0
19.325399  -32.925098  2.301750  0
30.966999  -45.066799  2.618910  0
32.806000  -21.444201  16.264700  0
21.209600  0.412925  46.094700  0
35.216999  -34.849701  19.746700  0
34.909401  -35.395901  18.983101  0
35.934502  -35.091999  17.091400  0
1.426460  -30.137501  31.278000  0
1.258580  -29.961100  29.464701  0
1.060810  -30.957199  30.722700  0
31.841299  -12.639700  34.976799  0
28.758499  -59.473400  15.731900  0
28.071400  -58.247898  15.303400  0
11.170800  -45.660099  25.440001  0
30.487900  9.617780  10.964000  0
31.798500  10.761900  11.865200  0
33.248402  -25.888100  26.435801  0
29.843901  -19.476101  22.629101  0
32.631599  -25.622499  27.461000  0
31.219500  -36.558701  14.247200  0
26.589399  -32.616699  37.716400  0
26.549200  -31.868200  37.942200  0
35.842300  -22.897699  24.688000  0
28.859200  -10.094900  8.006990  0
30.401400  -23.114500  17.795799  0
30.818701  -22.217699  16.039101  0
