#!ascii version of surfaces/CC00200XX02/label/lh+rh.surf+labels-reduced.vtk
46616 93224
4.691210  -29.707300  44.826599  0
37.403500  17.916300  12.215000  0
4.086310  11.857800  -0.165221  0
42.916100  -40.442699  24.776899  0
32.613499  -39.242001  39.916302  0
30.171400  20.513201  28.178200  0
40.110001  -15.297500  -10.693000  0
-0.210028  10.016800  6.520910  0
7.051050  -34.178398  48.381199  0
30.972601  -48.769798  31.276800  0
30.193100  -48.623402  32.854000  0
17.061300  33.302399  7.221400  0
10.254500  4.249780  47.835800  0
9.144250  19.229900  36.332500  0
11.278300  -55.449902  3.303370  0
0.179250  7.632570  6.397240  0
22.735800  -42.131100  -5.356360  0
30.986401  -34.671299  48.103298  0
2.637220  14.514700  15.292800  0
1.141320  13.937700  14.350500  0
5.165770  -49.185699  29.789700  0
36.809601  -43.310398  -1.799370  0
35.009998  -41.483002  -0.024644  0
36.457802  -42.049801  -1.547870  0
21.610901  -49.318501  -0.864965  0
21.162300  -47.915501  -0.154572  0
21.919701  -49.748199  0.785995  0
22.111799  -48.297600  1.312990  0
33.188202  21.648199  24.348900  0
2.380840  -51.972599  30.130100  0
16.860600  -53.009701  1.227710  0
35.508801  13.614000  9.022950  0
28.896000  19.593599  0.684214  0
33.409500  -56.372700  21.884399  0
8.880210  19.694500  35.741402  0
10.629800  -54.714699  2.718120  0
25.067499  17.047701  -3.959900  0
15.030100  -3.311200  55.251801  0
16.629801  -2.295260  -14.303000  0
2.770770  12.963800  34.954700  0
15.553700  22.122999  33.670101  0
26.507900  -37.226700  -6.816460  0
33.515800  -53.337101  21.198000  0
1.056630  -6.211820  44.573399  0
36.702499  -4.310480  -11.438700  0
9.444990  23.703800  9.767120  0
23.116600  23.706301  28.955400  0
1.454280  -35.624001  47.852901  0
2.923550  -42.199100  31.365299  0
1.917140  -43.811401  31.054300  0
24.910801  -13.334100  55.169899  0
24.674299  -13.105200  53.843102  0
38.930000  16.812500  19.973101  0
37.917000  18.421400  20.356600  0
27.454599  -51.061001  31.713600  0
21.584801  18.072500  -3.949750  0
22.345699  -66.024498  -4.558410  0
23.024599  -70.833900  13.279800  0
22.452999  -71.543503  12.982900  0
2.527000  25.690201  9.710760  0
3.297530  26.812500  9.561150  0
1.631450  26.232901  7.388840  0
4.259700  -10.757200  49.882500  0
0.863159  11.976600  15.403400  0
23.030701  16.235901  -1.514820  0
24.191500  21.092501  0.267368  0
25.101801  21.345699  1.055380  0
7.821820  -51.792099  -0.646217  0
7.574690  -50.325199  -0.821802  0
8.702510  -49.557598  -0.799496  0
6.602250  31.431000  6.015540  0
14.171100  14.167300  39.929199  0
32.471100  -32.914902  -9.141330  0
32.493698  -32.444599  -8.544350  0
20.129101  -10.707000  -13.735700  0
24.453400  5.214950  47.764999  0
10.292100  36.997299  21.723499  0
0.777746  31.851200  16.714500  0
14.935500  -49.243198  38.390301  0
41.479099  -24.448099  -7.951090  0
18.663601  17.364500  42.322899  0
29.442699  -47.412899  31.918501  0
22.649599  21.336399  29.142500  0
22.990000  22.942600  29.520500  0
23.091600  -44.670700  45.607399  0
15.782700  -21.927500  52.826599  0
31.708599  -33.192600  49.237301  0
37.613602  -42.356899  19.811600  0
35.350601  17.226299  26.916500  0
2.431030  4.317910  45.604599  0
2.005530  4.299670  46.337898  0
3.863180  5.285260  44.754700  0
33.127499  -26.721800  -9.651190  0
32.874699  -26.589800  -8.471750  0
31.947100  -38.660900  40.811001  0
32.627899  -39.786999  42.272598  0
32.406799  -23.582500  51.631901  0
21.209299  -1.114960  51.753799  0
7.410330  23.073500  23.151699  0
15.048200  -57.383999  17.199800  0
39.309200  -42.456001  32.891399  0
25.428900  20.483801  5.240140  0
30.989901  -11.641400  -14.673100  0
29.160200  -32.323200  48.135201  0
0.485616  14.032900  26.798599  0
2.785310  12.589800  36.263199  0
4.393060  12.478900  38.271599  0
2.674360  -31.525700  46.602100  0
3.751820  -30.797199  45.300098  0
8.197850  19.762501  34.761398  0
40.513599  15.417300  19.153601  0
27.576099  -44.838501  -1.536980  0
21.870199  22.303400  0.221475  0
3.798470  -55.371201  18.499001  0
15.468900  28.864500  16.158600  0
14.208900  -0.749990  52.853401  0
42.842602  -39.897400  27.943199  0
8.486680  -38.776901  51.391201  0
27.745600  -42.028801  -6.630090  0
28.336100  -41.420700  -5.089250  0
29.971300  -18.374800  -15.162400  0
30.393999  -20.309700  -12.445000  0
20.462999  -7.083070  -18.455700  0
2.417870  -13.739500  49.093300  0
34.127102  -33.047100  -7.760180  0
33.564301  -32.448799  -6.467930  0
17.822800  -17.210501  55.229500  0
15.783200  -7.427270  56.216801  0
4.033260  -49.061001  30.151300  0
1.864340  -19.084101  47.825600  0
2.529650  15.386100  40.266102  0
1.775110  14.904200  39.677700  0
21.347401  -53.130100  2.076470  0
40.433899  -40.985100  5.206540  0
25.411400  18.352800  34.252499  0
15.185800  12.392800  45.163601  0
29.841299  -47.764900  34.054798  0
7.941570  5.034660  47.822800  0
6.698680  4.490030  48.027199  0
41.590099  -43.613400  10.228900  0
25.512400  21.014299  3.812040  0
29.190500  -16.619699  53.413898  0
14.031600  16.158300  40.681599  0
7.422970  21.483900  23.566000  0
2.183120  10.235600  -1.628000  0
25.703199  21.388100  5.189340  0
40.351700  -23.753401  -5.861250  0
16.191900  -10.525600  54.820400  0
22.599501  -34.829700  55.498100  0
18.852400  -49.400101  42.169998  0
11.320500  -41.702099  2.129870  0
11.863300  18.230700  37.240200  0
8.822600  20.660801  37.387699  0
20.879400  -56.857201  30.246099  0
43.555801  -5.585500  -2.763540  0
16.208599  -37.348400  55.430000  0
16.607100  -36.176102  55.562099  0
5.948870  11.589700  40.839600  0
6.361700  10.217400  40.086102  0
38.201199  -35.295300  43.222900  0
1.983120  11.697700  35.382999  0
4.350180  23.026699  23.220600  0
30.606400  -53.757599  3.204890  0
27.513599  -54.967499  3.678930  0
8.664340  -69.397301  12.466300  0
10.957400  -68.349800  12.965300  0
36.050301  -48.945301  23.610800  0
17.011499  -30.653400  53.762001  0
4.020980  -2.130530  52.210602  0
2.603920  -2.763010  50.009800  0
3.377010  -2.998390  52.419800  0
24.065300  25.112499  15.243000  0
17.836599  -32.393299  56.901901  0
17.422800  -32.868999  55.352798  0
17.324800  -31.283400  55.265400  0
36.425999  18.394199  19.759199  0
8.095770  -46.190399  50.760601  0
9.302370  -46.713501  50.782799  0
38.384800  -45.270699  17.363600  0
40.386398  -44.467999  18.536699  0
0.892592  7.666660  48.509102  0
1.295330  8.162320  47.994900  0
1.446210  7.681410  46.869301  0
37.656601  -48.985199  31.535999  0
0.930259  -25.391100  47.969002  0
1.292170  -23.395000  47.835201  0
26.592800  -56.075100  3.854010  0
13.919200  14.102900  41.416100  0
36.237000  -53.313202  6.169840  0
1.270140  -4.406720  48.401901  0
40.608799  -42.854500  30.650600  0
41.404202  -44.780201  30.980700  0
40.721298  -44.641399  29.777901  0
4.677160  -44.017700  32.978401  0
28.858999  19.763201  30.294901  0
24.666201  -44.213100  43.687302  0
27.654800  -36.206200  -8.390570  0
1.192820  16.917999  -8.510740  0
21.608900  -58.541698  31.032801  0
7.479050  -71.058296  12.792400  0
34.561401  -40.114799  39.600201  0
10.394300  4.317380  49.321098  0
40.272900  -45.334400  16.805201  0
29.823099  24.904600  12.692600  0
40.114399  -13.585000  -9.732510  0
9.255790  4.664820  47.935501  0
8.137860  4.408390  47.356800  0
2.998040  -11.594200  52.449001  0
36.977001  -47.041000  21.328699  0
38.024799  -48.635601  21.468901  0
35.938702  17.799299  11.817600  0
17.479300  -14.344500  -15.132200  0
3.299950  -2.299670  48.692699  0
7.735330  -37.143600  52.302799  0
16.164700  23.337299  34.733501  0
5.985170  22.547899  23.607401  0
1.225480  11.561700  -1.236500  0
42.913200  -41.676201  18.329000  0
40.741199  -43.313599  19.188400  0
41.006401  -14.343800  -9.437130  0
35.834000  14.525600  8.555850  0
20.686501  -19.098700  -14.756400  0
15.573400  -39.687099  50.910000  0
11.444100  14.021600  41.981602  0
10.740000  15.172100  42.417599  0
14.255400  -41.048901  52.621399  0
17.262400  -50.610802  40.055599  0
40.262199  -11.752900  -10.566300  0
33.464802  -36.074699  -6.903370  0
17.997101  -19.048901  55.024399  0
37.091400  -34.248100  45.076900  0
35.632801  1.795860  -6.923440  0
18.387100  21.859400  34.784698  0
28.118999  -36.952999  -9.031870  0
33.695400  20.476900  3.621470  0
31.903000  23.442301  6.226870  0
5.174960  23.877399  22.004499  0
14.058000  23.882401  31.726000  0
30.212400  21.178400  28.164600  0
30.328100  19.151300  -0.111132  0
39.580299  17.709700  19.339100  0
1.541960  -22.989000  45.572800  0
1.270350  -23.937099  46.431999  0
2.128110  -48.044102  34.354301  0
16.023100  11.884000  47.001801  0
28.821301  14.844500  -4.942670  0
3.270620  -39.622101  44.606701  0
23.575600  22.842100  30.643499  0
2.618460  -51.498901  31.122101  0
3.039770  -43.341301  20.410601  0
15.335500  -55.344799  0.493163  0
11.749800  -56.066799  19.882900  0
13.001300  -56.388401  20.646601  0
17.273001  -10.316400  55.751301  0
32.525002  21.629999  23.386700  0
26.232500  -48.461102  41.414200  0
9.882210  -5.423710  54.332699  0
33.790699  20.374701  3.964640  0
5.926300  -50.690399  0.426507  0
6.498450  -49.570900  0.366135  0
5.124420  -1.131130  50.958698  0
28.006800  -55.889500  9.195170  0
6.012540  5.511850  49.335701  0
6.193120  4.534410  49.048698  0
30.852400  17.731199  -0.785381  0
21.048599  -52.634800  33.389500  0
18.124201  29.735399  19.782801  0
8.041730  -52.881699  0.175592  0
1.941220  12.556100  31.475401  0
31.256500  -48.296398  40.745499  0
28.904699  -16.420099  -17.064400  0
14.363900  8.873990  49.505199  0
10.024400  -54.670101  1.490850  0
14.375200  -1.091530  54.575802  0
31.794800  -39.109001  43.861500  0
27.088400  23.525200  3.902400  0
2.411670  -44.562000  34.208199  0
15.696500  -12.575800  -16.459499  0
8.502530  25.977800  2.144930  0
1.184120  15.244300  30.965300  0
5.772430  23.815701  23.378500  0
14.905400  13.947600  46.703701  0
18.356199  10.882300  -6.560280  0
16.905800  34.058601  17.297501  0
3.817200  -32.696499  47.011101  0
14.026000  22.061899  30.774099  0
1.224510  -20.895000  46.837700  0
27.508900  -55.493599  9.415410  0
40.092999  16.597900  20.698601  0
32.412102  -52.787998  -4.683400  0
5.781800  -51.806702  10.563100  0
3.034810  -39.701698  47.798901  0
14.256300  -40.638699  52.503502  0
19.909800  33.765900  14.663800  0
27.329700  -55.793598  9.909140  0
26.403299  -37.906502  51.993198  0
26.351900  -38.466499  53.092300  0
13.991400  -67.319099  3.967220  0
19.847401  -57.824200  3.829230  0
1.739260  23.999500  24.803301  0
2.246930  25.313299  24.718000  0
3.031040  24.209499  23.540100  0
16.813601  -52.242901  42.058701  0
23.749201  -26.739201  53.372700  0
1.115900  3.797230  42.439301  0
1.045880  3.169910  41.277302  0
26.669701  -40.162800  -6.280240  0
14.898600  24.888800  34.095299  0
39.266602  -37.413700  -1.689210  0
41.047401  -36.382099  -0.605513  0
39.550499  -37.864899  -0.575420  0
13.295600  8.344880  -7.536510  0
28.467800  -46.690701  44.653198  0
5.962830  -55.732700  18.924101  0
2.253380  34.424801  2.640130  0
29.233299  21.454100  31.870199  0
29.561001  20.788200  30.552000  0
14.958500  -22.134501  54.154999  0
13.956300  -21.483801  56.346802  0
13.644500  -22.660500  54.163399  0
15.798300  -29.400900  54.898800  0
17.406900  -49.087502  39.780499  0
13.074600  18.509800  39.844101  0
30.877899  -49.402500  35.237900  0
29.705200  -47.614799  36.444401  0
8.324750  27.385900  11.817500  0
12.876900  14.765700  42.148102  0
12.776800  2.468300  52.387402  0
6.314070  24.924801  23.666100  0
26.130899  21.266701  4.067190  0
2.508120  -17.063000  45.851799  0
9.979280  -58.162102  21.749500  0
31.205400  21.853701  27.636700  0
2.036320  -21.070801  49.476700  0
14.066600  -10.426700  56.186600  0
14.015300  14.754500  41.349701  0
27.091400  -44.010101  44.326801  0
36.160900  -50.084202  31.586201  0
13.807900  -45.248798  45.653801  0
6.461170  21.207500  13.988600  0
1.585100  18.233900  19.867500  0
15.037700  17.158199  41.852200  0
33.946800  19.990999  26.161800  0
34.920200  18.464100  26.533001  0
8.776700  -38.707001  51.556900  0
37.225498  -3.955470  -13.035500  0
15.649600  -68.348999  8.929030  0
27.142500  20.530300  2.326180  0
12.337900  -45.516300  0.292928  0
29.098700  2.332280  -14.044600  0
27.850000  -39.882900  -6.702540  0
32.605202  -35.158199  49.643101  0
13.364000  12.687200  41.037399  0
37.733200  19.107100  20.120600  0
25.305599  -26.878500  55.651299  0
35.781601  -45.941898  36.874401  0
37.233601  -45.487301  36.144901  0
26.901699  -14.766500  -17.223600  0
17.886200  -7.447470  -17.572701  0
40.882401  -45.206600  27.544701  0
20.949800  -48.266499  -3.509420  0
20.011600  -47.502300  -2.748690  0
21.005400  -48.075901  -1.942680  0
13.624900  23.469500  31.178600  0
9.540540  -22.041201  54.420300  0
16.827600  -51.092800  40.574799  0
8.151820  23.046499  1.634300  0
12.657500  1.919240  54.473400  0
13.623400  0.797759  54.956200  0
13.384800  1.129370  52.357399  0
31.198099  -49.718700  33.218300  0
32.027401  -49.807999  32.495399  0
15.918800  -44.450298  47.538502  0
27.082500  -51.057899  1.050940  0
7.595970  -17.130899  54.950500  0
7.741160  -16.821400  54.876301  0
12.275700  -11.235600  56.487499  0
32.114799  -5.404270  -15.173400  0
16.526899  28.367100  19.000099  0
9.247950  -12.096600  57.138100  0
8.991620  -21.564899  54.895599  0
0.447114  10.671200  -2.423790  0
4.338220  9.761980  39.418900  0
29.989799  -38.007999  44.759300  0
5.002560  15.832500  40.024300  0
1.065090  17.582399  20.233700  0
0.499956  17.452600  20.993601  0
31.799299  -51.571098  33.853100  0
30.393200  -50.151199  32.334599  0
4.230210  -53.949402  27.345100  0
39.498600  -49.095200  27.966499  0
40.498798  -42.373299  33.562199  0
14.557300  30.963400  16.859900  0
18.893900  -58.744099  3.620390  0
19.764601  -58.993099  2.396820  0
19.997101  23.253700  36.076000  0
31.511000  -14.691500  -14.679100  0
4.495350  10.817500  40.363998  0
1.100310  21.727100  26.220900  0
19.107100  -47.508801  -3.298540  0
38.848400  -45.813702  35.653599  0
14.220100  -46.358200  46.933399  0
21.364500  -52.258499  34.681099  0
6.390950  -7.634260  51.511501  0
16.668501  -10.543800  57.094700  0
23.736401  -63.524502  9.250410  0
17.718901  19.005501  -4.237730  0
18.330200  19.654900  -5.057930  0
16.673401  -35.154701  55.400299  0
8.074630  -18.068100  56.022499  0
22.760900  -57.803799  25.204901  0
21.036100  -61.061798  -0.101752  0
28.138100  -2.611460  -16.580400  0
37.268501  13.035200  5.742860  0
27.908199  -3.082910  -17.017401  0
14.076400  32.996700  3.708500  0
16.055000  33.250301  5.057520  0
19.735901  -44.567101  46.237099  0
17.664900  28.454201  24.643999  0
30.348801  -57.215302  7.492940  0
23.349701  -15.141100  -18.523199  0
21.667101  -14.291300  -18.703899  0
2.978680  17.057199  40.255001  0
1.616300  18.329201  24.077600  0
8.675410  -57.791901  16.520201  0
12.733500  -55.431198  18.131800  0
10.754300  -55.584900  18.469101  0
1.825460  22.025499  25.028601  0
21.297001  -62.170399  14.612900  0
39.433800  22.579201  6.418640  0
1.631130  -13.525300  52.764999  0
1.962180  -12.247600  53.192699  0
2.574010  -13.403700  51.293301  0
2.346090  -44.535198  24.624701  0
3.537270  25.906700  1.268540  0
8.233300  24.298201  2.002930  0
21.149599  -43.926300  45.759602  0
17.396999  -18.317200  56.715500  0
13.504500  18.398600  41.489700  0
1.873810  -23.246099  49.250401  0
3.368510  -22.398199  50.905399  0
3.130760  -22.015800  50.369301  0
1.439080  -21.698700  47.979698  0
23.214199  -61.253399  14.326200  0
22.389500  -60.866699  13.845900  0
1.161560  10.172800  37.051800  0
5.055380  20.431999  -0.661380  0
30.344900  -54.074200  13.051200  0
21.240601  3.063740  -10.659100  0
7.702460  5.140820  49.260502  0
36.274799  -41.138302  40.845798  0
34.909698  15.034200  -1.038920  0
21.585400  -55.325901  2.706050  0
3.710450  -0.841396  51.423302  0
18.392799  -49.644798  41.277401  0
16.041000  10.901600  48.499100  0
2.779370  -54.055901  35.303001  0
18.324600  -17.148100  56.594200  0
30.240801  -3.832710  -15.392600  0
31.989201  -4.925140  -16.163200  0
9.635860  -17.530199  53.855000  0
27.792700  -49.352901  0.557739  0
12.526300  29.442301  26.261299  0
13.022700  29.882401  26.866800  0
3.109390  -8.284770  56.373299  0
5.794350  -6.239360  54.598701  0
37.386799  -40.108601  39.636700  0
19.053200  -55.662102  35.860001  0
4.711910  14.005000  40.985298  0
8.575780  -19.209900  55.784500  0
29.700100  20.161800  30.519800  0
1.948340  22.997601  8.282350  0
1.012280  24.240200  7.321660  0
14.644600  19.610399  -1.942730  0
12.796700  21.126900  -2.915010  0
12.368700  22.041201  -3.061100  0
16.138599  29.262400  18.450300  0
17.094999  12.399100  47.475700  0
35.767101  20.092699  25.761600  0
13.401500  17.624300  42.448799  0
12.406000  17.746500  43.429100  0
13.194000  15.906000  42.337601  0
33.568901  -14.281800  -15.682700  0
21.867500  -40.550499  -4.016650  0
37.812801  -49.693100  32.879398  0
4.938110  -1.509910  51.328499  0
6.546410  28.620501  18.453501  0
14.648100  -28.652300  56.899200  0
40.922199  -45.765400  9.142370  0
40.898102  -11.915200  -11.618000  0
39.800098  -9.359650  -12.552500  0
0.417604  12.293000  -0.757171  0
13.881500  15.000000  46.062000  0
20.549999  -62.972500  14.873900  0
20.515100  -64.866699  14.763000  0
19.405399  -64.183899  13.350900  0
18.883600  29.873600  19.373899  0
35.322899  -47.267899  38.990002  0
36.169201  -46.424198  38.258400  0
16.706600  18.904699  -2.882780  0
11.365900  19.613001  38.437698  0
35.561699  -50.912201  32.142799  0
33.341301  -57.458698  11.375200  0
31.724100  -57.154202  11.140000  0
18.285999  -67.431801  8.620250  0
37.730900  20.461800  22.459900  0
37.576401  19.884001  21.242800  0
14.054100  1.376590  52.375999  0
8.002610  23.276600  37.703999  0
8.024990  21.035400  36.115799  0
21.041401  -56.816799  3.499590  0
20.094000  -5.671820  -19.225700  0
20.943100  -4.172790  -20.079201  0
9.480390  22.239599  41.342400  0
11.417500  21.435301  41.201900  0
11.012500  21.232700  39.950901  0
3.549320  -52.708698  9.879070  0
23.428200  27.684200  0.848999  0
25.473801  27.485100  26.509199  0
2.833030  -46.730202  11.485300  0
1.904840  -44.364101  35.154800  0
8.700400  21.732401  43.353001  0
5.334160  29.635099  13.594900  0
18.131599  27.577299  27.944599  0
38.126499  -45.189400  3.838120  0
36.440601  19.557501  20.652500  0
3.664220  24.946800  23.708401  0
35.765099  -56.837898  21.001900  0
36.535099  -54.964802  20.460300  0
4.591210  -1.322710  53.362099  0
6.201390  25.685499  23.781799  0
4.450420  25.525200  23.816200  0
5.262920  24.575399  22.905399  0
26.694700  -62.890301  28.690599  0
7.217810  25.441299  38.260700  0
14.492600  30.475800  28.165400  0
15.633700  -67.645500  10.309300  0
19.802200  36.110401  16.166300  0
38.777199  -39.956200  39.396599  0
24.164600  31.763700  24.663900  0
25.397400  29.560600  26.819201  0
22.042801  -3.620480  -19.457600  0
8.860260  -58.487400  20.447100  0
1.052110  1.325320  48.602501  0
22.463699  -51.952000  36.030201  0
21.549200  -51.336899  35.992199  0
12.864300  19.505301  40.510300  0
14.533400  -40.825100  53.136299  0
15.207000  -40.173801  52.515999  0
2.187740  6.669050  45.723801  0
20.738701  -52.558601  34.262299  0
30.959101  -53.157600  23.861601  0
34.210098  23.646099  11.933900  0
27.253201  -0.641885  -17.809999  0
15.799800  -0.709002  54.071602  0
9.488180  -17.577000  54.894199  0
1.746610  15.057200  -1.095390  0
11.919100  -56.039299  17.147200  0
9.434120  -57.063499  17.542999  0
22.302799  22.502300  -1.457680  0
33.734501  16.704800  -1.835630  0
3.412290  -21.776199  51.934200  0
20.788799  -60.792500  2.585240  0
1.212930  -41.648701  35.790298  0
37.178200  -5.612060  -13.451300  0
36.401699  -6.718170  -14.255400  0
36.618401  -5.716900  -14.880500  0
1.877970  -21.073000  54.145199  0
22.713200  18.557301  -3.362820  0
18.029699  18.708799  -2.430590  0
2.488410  -22.316900  53.874199  0
3.184100  -22.636801  52.256500  0
16.767599  -29.688999  56.931099  0
1.020610  11.412800  -1.676020  0
14.217300  32.240200  12.221500  0
19.450899  22.750601  36.629501  0
5.628030  14.812900  -9.988150  0
14.063500  19.245100  41.287998  0
14.562700  16.599001  40.917801  0
1.620090  8.973420  43.276299  0
1.822740  7.122890  43.764801  0
1.737630  9.055860  44.241299  0
32.706902  -50.749901  33.589199  0
26.869200  25.047501  4.363170  0
0.656102  15.145600  7.153980  0
29.228001  -44.809799  47.119598  0
2.002860  -44.074799  36.561699  0
29.537001  -56.111301  7.890940  0
3.760680  -58.812199  24.204599  0
5.278630  7.265480  50.028000  0
1.951300  7.848020  44.638302  0
14.594600  30.880899  30.154301  0
34.386501  -42.316700  42.284599  0
38.940498  -48.175301  32.030701  0
19.488199  -7.210030  -18.131100  0
8.075660  29.726000  17.861799  0
6.069210  30.326000  15.954800  0
14.202300  -21.097799  57.577599  0
5.945690  -52.224300  8.701260  0
32.054001  -37.026001  50.245701  0
2.557370  11.231300  43.532001  0
2.634620  10.210000  40.499100  0
1.657510  9.559000  41.310501  0
1.951720  10.006500  42.603100  0
16.406799  23.412100  35.607800  0
4.630370  0.002688  54.559101  0
5.382870  -0.542703  52.614899  0
4.110650  -1.812580  54.352501  0
0.121201  10.189900  -3.345600  0
21.017000  -45.527000  46.988300  0
28.099400  -53.322102  32.760399  0
13.383100  24.191299  32.301498  0
11.833800  16.238899  43.093399  0
7.027080  26.962000  11.171700  0
23.396200  -41.050201  -6.516000  0
23.895100  -43.160702  -6.484940  0
15.013600  -8.593230  57.194698  0
6.079940  7.718970  52.003502  0
4.141040  8.123260  50.671799  0
11.250400  26.259800  35.112701  0
12.863500  27.103500  35.117901  0
12.083200  27.502800  35.577099  0
17.761801  23.841499  -1.499830  0
6.415850  6.071080  50.402699  0
30.969900  31.306999  17.189199  0
0.886955  38.518902  10.767900  0
1.136500  -20.100800  55.214500  0
0.994152  -17.788401  51.615501  0
32.184700  -51.391399  1.363670  0
11.879000  24.878000  33.699299  0
13.614000  23.582899  32.807201  0
17.616400  25.958500  -1.065660  0
33.696800  -6.302670  -16.130699  0
19.967899  -56.104500  -6.593810  0
19.320900  -68.949303  8.566840  0
20.312300  -68.648697  9.187970  0
21.652000  -70.308601  9.114090  0
34.972198  -51.737801  34.606602  0
28.836599  -46.906700  -2.646650  0
0.618359  16.416901  4.038310  0
32.111000  -53.376801  13.798400  0
20.970501  -57.939098  1.596380  0
37.433201  -48.052898  4.840270  0
8.539860  -57.914001  17.320299  0
12.410600  -11.130400  57.591202  0
7.381610  24.121401  31.585300  0
26.782700  27.514500  16.587000  0
1.849510  -0.244143  50.259602  0
2.840200  -0.915108  50.212502  0
32.075699  -3.684910  -17.196501  0
7.324780  24.293200  34.992001  0
2.250630  -10.176400  54.942799  0
2.686190  -39.653500  42.231400  0
19.978100  -41.194099  51.216099  0
37.067699  -51.326000  13.316000  0
1.853090  -40.444199  38.501202  0
25.149401  27.179001  16.294500  0
38.048401  -50.842499  12.618000  0
6.299500  -5.620670  55.547901  0
0.709392  -15.643000  54.805401  0
1.161650  -16.064400  51.498798  0
28.430401  -55.327801  10.630300  0
24.602200  28.867701  10.626400  0
21.552401  -38.667301  54.395401  0
32.198502  -50.767502  34.580502  0
0.881442  14.596200  32.732800  0
2.424530  -47.692001  31.008900  0
1.987260  -46.221100  28.761400  0
11.932900  25.037100  34.241299  0
13.441400  25.545200  34.697899  0
11.847300  26.365900  35.820000  0
2.422880  -39.702202  38.616199  0
22.937500  29.476000  9.888570  0
3.419920  21.675900  8.682640  0
0.755584  14.940100  0.579453  0
14.996400  -3.589130  56.377800  0
10.497000  -54.462898  37.368599  0
15.210100  -28.733999  57.963799  0
5.994980  28.724100  17.353001  0
37.191002  -46.168201  2.607580  0
36.184898  -52.577301  7.808430  0
37.124001  -51.689301  7.683830  0
1.330360  16.681000  -0.311595  0
14.703200  -54.237499  -2.737260  0
30.259501  -44.477100  -6.315870  0
2.523270  0.553109  53.671299  0
1.223100  1.558470  52.452301  0
18.926201  -35.319698  57.674500  0
17.997999  -34.676701  57.127399  0
21.599501  -52.408298  36.148602  0
36.422401  -53.623299  20.159901  0
25.775200  27.098200  25.962999  0
2.301570  13.639100  38.897400  0
6.383310  -51.882801  0.560424  0
14.782900  13.725600  47.964600  0
12.432700  25.036301  -3.848360  0
31.695801  -52.891602  36.512299  0
31.766300  -51.818100  38.182499  0
22.236900  -58.821602  25.560301  0
29.959400  -58.821301  23.974501  0
27.283100  -57.410400  10.298500  0
16.502001  26.654900  -0.450388  0
17.626101  28.843399  -0.987710  0
22.733000  -52.927700  36.997200  0
21.908899  -53.114700  36.451500  0
33.977798  -53.414398  8.504270  0
25.727800  -60.071602  7.751290  0
28.978300  -58.289101  11.402900  0
29.716999  -58.853901  12.119900  0
33.315201  23.675600  13.127200  0
28.025700  -57.015499  10.458500  0
13.819200  23.966999  -8.467560  0
12.446400  24.892300  -11.149200  0
13.863300  25.470400  -8.645020  0
15.852500  -56.445400  -1.069770  0
4.518010  26.077900  10.280300  0
3.361330  16.749399  40.830200  0
4.829330  15.878900  40.386501  0
27.173800  -44.977402  44.719101  0
24.475401  -47.469700  -5.776090  0
21.068300  30.015800  28.979099  0
28.193100  -57.136902  10.888300  0
19.076900  -51.014999  43.646900  0
7.035870  -20.718000  58.337002  0
14.261200  -49.007401  -1.600070  0
5.785000  28.163601  26.079901  0
6.530470  28.020599  26.198999  0
14.312700  20.012100  -3.200450  0
23.826500  29.072500  10.340200  0
11.052200  -10.824900  58.308701  0
7.657490  25.274900  30.793100  0
25.604601  -53.061600  36.637299  0
14.355600  20.423000  -6.890380  0
14.827300  18.093500  -7.596640  0
13.743800  19.961700  -8.314320  0
0.385926  13.659500  -5.971240  0
19.260300  -34.024200  57.473598  0
24.965700  29.054300  28.021799  0
4.207190  -51.275700  9.688000  0
33.159000  -55.545101  12.056100  0
26.800301  -45.870499  46.422001  0
36.058701  -47.875500  5.921550  0
30.280500  -57.239201  18.903400  0
4.862150  23.776899  11.098200  0
27.656099  26.475700  3.187160  0
28.074800  24.528299  3.000270  0
2.861970  12.647600  45.223900  0
3.739570  11.862300  43.269798  0
25.564800  -61.477100  15.776700  0
1.162880  -25.195400  53.748100  0
19.095501  -49.826199  43.515202  0
17.728701  29.736601  25.462900  0
18.144199  29.932699  24.256701  0
-0.106752  18.598400  2.218060  0
0.293448  16.950100  3.227790  0
31.917700  -53.967201  22.502399  0
31.283800  -58.249901  8.791240  0
29.518900  -56.952202  9.749250  0
31.841000  -58.639099  10.110900  0
29.029301  -57.009399  10.392500  0
27.271400  -61.004700  17.540899  0
16.679501  -59.807701  30.445999  0
31.072201  -49.666100  37.042301  0
31.812401  -49.698700  39.458801  0
5.554810  19.169600  -10.084200  0
13.723800  -62.993500  7.749350  0
1.549180  21.356199  31.946800  0
3.064220  27.785200  13.247200  0
36.443600  25.192499  18.232201  0
8.818150  31.787901  8.070770  0
1.811170  10.297500  44.485100  0
14.724100  -50.248600  -1.824440  0
14.924100  -51.406799  -1.437940  0
1.588040  11.756900  46.378502  0
16.824301  25.194000  35.536098  0
19.738800  -65.633102  10.855400  0
6.051810  28.659201  6.790130  0
13.566300  28.701099  35.001499  0
10.672100  -51.933201  -2.567900  0
7.540480  29.256100  6.444770  0
3.417300  -50.814499  7.880920  0
28.033501  -40.953400  50.243000  0
7.368890  26.707600  30.884701  0
16.611099  -60.436298  31.736601  0
36.239498  -54.593300  11.085900  0
29.837299  -56.441700  10.713400  0
10.145900  -43.946899  56.703999  0
11.690000  -41.413399  55.885101  0
2.069510  22.355600  29.633499  0
36.207199  -45.432999  -2.595030  0
7.227930  -35.856400  56.290100  0
22.903400  -56.606701  -4.189010  0
31.337900  -50.294899  39.209099  0
31.002399  -50.767899  41.102200  0
28.450100  27.972000  2.593250  0
16.205400  -29.897900  59.610699  0
10.151100  21.509100  39.148201  0
33.426498  -54.383598  21.700300  0
21.640600  -38.374699  55.169498  0
6.378120  28.273800  25.753099  0
1.736820  13.270400  47.199902  0
9.696300  -54.698101  39.231400  0
24.863701  -53.585899  37.831402  0
31.930000  -53.395000  2.743410  0
15.887900  17.799500  -6.825320  0
17.194799  16.430000  -6.751350  0
21.443001  -40.048599  55.340000  0
1.575990  21.113300  31.103300  0
14.864800  31.978399  17.827900  0
14.756000  33.106400  16.851700  0
22.305901  -45.622601  52.341099  0
25.787100  20.475201  -1.590990  0
32.396400  -56.259399  11.583100  0
0.835348  16.829000  30.490700  0
6.043050  7.018130  51.556999  0
28.628099  31.601101  17.622700  0
1.665410  13.461000  48.432899  0
22.589800  -38.012402  55.549900  0
29.013201  -58.575600  1.285850  0
1.907710  -31.265600  55.603802  0
36.438900  23.609600  15.522700  0
27.525999  -57.591801  31.883801  0
0.139715  15.413300  -2.251880  0
37.576801  -53.296200  19.050800  0
15.999900  12.444100  -6.614530  0
25.094200  -61.636299  8.926010  0
16.881399  13.561000  -6.131790  0
21.726801  25.487200  34.227501  0
22.147400  25.771200  32.599400  0
21.177200  -40.898499  52.889599  0
13.805400  -68.141998  20.600401  0
36.728001  -52.858002  13.456900  0
1.675550  26.019600  25.908899  0
1.578930  24.727100  26.803600  0
7.925980  30.166100  16.775000  0
25.820700  30.826000  12.024200  0
36.833302  -46.226700  -1.750830  0
23.254499  31.893499  4.871780  0
24.457899  -46.797298  -6.465320  0
1.319410  17.769600  39.205200  0
8.005080  13.327200  49.273701  0
21.222200  -59.382099  -0.592697  0
30.375200  -59.940201  5.392360  0
18.285400  36.084499  2.571840  0
30.744301  -54.276600  36.939499  0
21.534201  -54.990200  37.458401  0
18.467600  28.598499  -1.711530  0
6.934670  34.789501  29.334400  0
8.732570  -34.909901  59.776299  0
10.307100  -33.494301  58.476299  0
10.153800  27.208500  35.891602  0
11.555900  26.737301  37.193001  0
17.573700  -31.127399  57.215199  0
12.266500  -41.445702  54.730499  0
12.321600  -51.378101  -2.546570  0
3.984010  27.920099  25.884600  0
13.403500  22.630600  -5.468140  0
20.744499  -64.277000  14.563600  0
33.729401  -55.683899  22.374201  0
18.767401  31.591000  22.427099  0
17.466000  27.929100  -0.320068  0
16.923201  -35.051102  56.925598  0
5.900330  29.442400  16.286400  0
35.444099  16.127701  -1.681630  0
31.844200  -54.441399  2.455130  0
32.842499  -55.004799  2.205580  0
22.164801  -54.577000  38.383099  0
26.207500  -53.113201  -0.695549  0
15.248800  18.776699  -6.489550  0
1.064670  10.462700  48.400600  0
13.254100  21.773001  -6.072240  0
24.207399  -60.265800  13.598600  0
31.847500  -57.609798  18.480200  0
18.070200  26.634899  -2.811580  0
0.158623  18.058100  1.174740  0
0.699026  16.497601  0.346895  0
0.271542  16.464100  1.832250  0
12.210800  -64.975304  13.329700  0
12.922000  -66.393097  14.713700  0
17.718300  20.740801  -5.621420  0
27.861601  -55.761501  31.299000  0
16.149599  -34.816002  60.431099  0
9.516230  -48.597401  51.570999  0
0.593541  25.682699  6.217580  0
19.988400  -64.969002  10.670300  0
0.450606  21.489901  20.230700  0
29.666700  18.897900  -1.683650  0
20.727501  -42.667500  53.955399  0
31.749300  -54.778301  -5.510200  0
1.235470  20.444700  25.438601  0
5.032570  -36.021801  54.001400  0
12.932500  -63.260799  9.549210  0
24.928900  33.997799  20.135401  0
9.418770  -65.474701  26.390699  0
29.333401  -62.093300  17.917200  0
15.841400  -37.261200  58.514801  0
14.636800  -38.034500  59.637402  0
22.290400  -40.837898  54.048500  0
8.292990  27.650200  31.045500  0
5.314470  27.183399  11.660300  0
19.482201  -63.359501  22.235100  0
8.595940  31.509501  33.071701  0
8.199470  32.510899  32.010399  0
8.806620  32.518200  32.730400  0
1.024960  23.606199  37.946701  0
1.283660  22.036400  36.050800  0
7.982540  26.256500  37.505001  0
7.309410  25.591999  36.256599  0
31.551800  -52.605801  2.621540  0
3.773590  33.103401  7.837810  0
12.096400  14.584700  -8.594260  0
19.343399  32.559898  24.984100  0
22.886200  -46.818401  50.654499  0
3.877320  25.194099  11.771900  0
7.995010  30.739100  14.953500  0
6.169430  -36.764099  54.390701  0
22.061501  -51.594200  -4.232990  0
28.698799  -55.605900  2.437680  0
20.313299  -57.093102  36.911701  0
9.115080  28.695499  31.361401  0
31.133801  -58.885101  11.475400  0
14.772800  -53.125500  46.877201  0
21.180099  -57.135399  36.444599  0
6.824520  31.507200  14.860600  0
14.791800  32.651299  16.313299  0
33.756001  -53.013199  0.893571  0
32.919998  -55.594101  1.066430  0
8.907570  22.504999  38.586498  0
1.921790  16.560900  42.982498  0
14.241200  34.201900  15.946600  0
13.417100  34.358398  11.918400  0
24.737801  -62.065201  15.240000  0
8.868130  24.479900  38.779598  0
20.923500  -51.288300  -4.265080  0
6.784660  35.340698  7.759300  0
28.177999  -51.880600  -3.533200  0
25.594801  31.976999  10.950200  0
1.247820  -42.717499  47.375000  0
14.527900  34.544201  3.553500  0
32.373901  -59.808899  11.052600  0
18.170300  -53.113701  -5.566980  0
23.727200  25.985500  28.984600  0
22.640200  -65.907204  15.156100  0
28.972700  -53.663799  -5.568750  0
29.962200  -52.338902  -5.624690  0
30.350901  -55.427799  -6.064460  0
21.831499  -57.883301  -4.621310  0
22.704901  -57.633400  -5.896950  0
22.074301  -58.539902  -5.509730  0
32.522202  -53.785999  1.873440  0
18.485001  34.405899  22.114799  0
-0.275720  24.366100  -2.506610  0
0.276631  24.094801  35.649799  0
0.525793  22.698500  33.750000  0
11.574500  26.983400  -5.313890  0
14.301700  -39.690399  56.406200  0
21.724501  -56.939800  37.794102  0
24.576700  -62.978699  15.521500  0
6.549150  26.506701  33.356800  0
33.840698  -51.743198  -0.668591  0
33.014000  -51.757801  -2.828210  0
34.559799  -51.231998  -3.433580  0
16.386700  -36.900902  56.731701  0
10.929900  -64.731903  12.993800  0
33.584099  -58.280602  17.697399  0
6.835290  30.131500  6.345510  0
20.415300  23.051800  -3.933730  0
20.193501  -65.020798  13.485200  0
5.628480  26.546301  -2.906040  0
13.152600  -64.205299  28.115801  0
25.244101  -61.255299  14.522100  0
16.388901  -51.803001  49.068901  0
26.059000  27.707399  -1.926330  0
26.656799  26.067499  -1.770880  0
26.000200  -52.681999  -5.572460  0
25.694901  -50.677399  -6.258240  0
26.944901  -51.525299  -5.613000  0
5.477470  27.872499  33.579601  0
2.599130  26.643499  25.380301  0
7.911650  -71.801201  13.205600  0
5.830840  31.659599  5.337570  0
11.962500  -55.539902  46.775799  0
1.448900  -40.041500  53.506901  0
1.574710  -41.461201  53.361900  0
1.431320  27.942801  24.540701  0
21.784500  -58.785000  37.406502  0
13.552500  22.635799  -7.930260  0
15.426100  33.360001  17.157000  0
9.808220  -64.745300  20.083000  0
19.806999  -52.720600  -5.198940  0
15.024000  -55.546101  -2.798290  0
19.641199  -57.738998  40.804199  0
15.609200  -38.434700  56.413101  0
26.874701  -55.200298  -4.553580  0
18.993500  -64.219597  8.960650  0
19.186300  -65.369102  9.736780  0
20.528700  -43.272301  55.425499  0
12.350100  20.327801  -9.287320  0
21.278099  -44.209999  53.945099  0
3.393640  -36.761299  55.129299  0
4.045260  -37.205101  55.764500  0
7.474790  35.020401  20.290400  0
12.128300  21.379400  -7.739100  0
12.390200  21.676399  -8.716220  0
13.889000  34.429901  11.532600  0
26.952400  -52.863499  -4.506190  0
2.370230  28.059000  26.638500  0
1.299850  26.845699  27.057400  0
14.769600  30.750099  27.137300  0
16.363701  -52.661701  47.749500  0
18.925699  -64.648499  2.150670  0
25.944300  -62.622501  15.855300  0
5.291480  30.883801  15.367900  0
12.011300  22.716200  -10.443600  0
11.106500  23.774799  -12.117000  0
23.843500  30.055901  -0.206792  0
14.398600  -64.127098  40.416100  0
26.019699  -62.376701  13.844400  0
0.480540  31.417999  22.959000  0
12.115500  -41.897800  57.106400  0
8.717440  -74.418900  7.308340  0
3.291170  -50.204800  36.172401  0
11.358900  28.159500  -6.643200  0
28.779301  -52.108501  -4.879530  0
5.548780  31.369400  7.528850  0
25.969400  -62.395100  14.826000  0
26.202101  -64.583702  21.210300  0
31.906099  -59.432201  7.670420  0
0.694213  24.551399  37.182899  0
30.440001  -59.237999  -0.628006  0
29.286900  -58.395401  -0.034470  0
23.950001  -62.729198  9.403280  0
14.580500  29.006100  33.151199  0
31.483700  -56.417198  1.180070  0
3.783820  30.539600  6.089090  0
23.733700  30.403099  -0.508910  0
8.481360  33.174000  -9.201610  0
30.846201  -62.418900  18.493799  0
23.895201  30.437500  -2.151850  0
23.633499  30.488199  -3.757530  0
25.076900  32.374599  4.398620  0
24.890499  32.005299  3.869860  0
9.813340  29.875299  33.637798  0
27.467699  -57.964199  -6.975490  0
32.801601  -60.152302  8.799500  0
33.435101  -61.351002  16.248600  0
10.499000  -33.800201  59.814999  0
2.664050  33.016602  25.853901  0
19.253000  29.751801  -5.757170  0
8.760540  38.622700  18.473400  0
1.444780  33.750702  25.160000  0
1.600660  34.757801  25.743900  0
0.826476  33.833500  24.022499  0
28.228201  -55.775398  -6.194080  0
31.786301  -61.976299  1.807400  0
31.666300  -62.641998  3.520100  0
1.470280  38.143799  13.711600  0
14.127300  35.900902  13.474100  0
21.207399  -57.339001  40.857601  0
18.080700  26.518299  -5.305290  0
20.239500  35.302799  15.711400  0
13.815200  27.296400  -7.525190  0
14.440300  25.957701  -6.817670  0
13.966400  38.189701  11.075600  0
8.313990  -65.754799  6.154780  0
30.247101  -63.722900  17.885000  0
3.883990  27.994900  1.080640  0
27.346701  27.774401  -1.753370  0
0.463959  28.654200  21.974501  0
3.631180  31.548401  4.272880  0
1.662140  30.421101  4.408360  0
11.851900  28.885201  -8.074510  0
29.400999  -64.257500  7.636980  0
27.271099  -63.625198  8.090490  0
19.523899  -67.171997  9.205290  0
27.781300  -65.667603  8.747840  0
26.572701  -65.941399  9.046930  0
5.597300  27.584299  35.482201  0
2.662880  -39.104900  57.046600  0
5.194680  33.026100  7.652210  0
1.766210  32.789200  0.856051  0
24.972401  -60.212502  27.803101  0
30.492500  -57.699299  32.607601  0
26.791500  35.265400  15.300600  0
18.354900  -57.736000  42.489399  0
23.435400  32.111801  -5.762010  0
21.763901  32.687302  -6.458750  0
1.014520  29.104300  5.035010  0
15.996300  -69.937698  8.577310  0
15.165700  -53.595001  -4.037590  0
20.366199  -48.337799  50.017899  0
10.378900  37.070801  16.226700  0
10.160900  37.151299  15.791200  0
6.206600  32.310101  2.981480  0
20.252300  -66.343201  10.859300  0
27.729300  -54.660198  -5.204620  0
3.587490  24.837700  -6.157140  0
2.271540  26.422199  -6.530250  0
2.469810  24.541100  -7.014030  0
24.174000  33.446201  3.593660  0
11.669200  34.164799  -4.407480  0
11.264400  32.003899  -3.584780  0
21.236099  -64.623596  21.773800  0
3.809120  35.037201  7.788890  0
28.757401  -58.550800  -1.462630  0
20.066200  -67.133400  10.129200  0
24.522800  30.362301  -1.487260  0
32.103802  -61.633301  7.288000  0
13.563800  -65.137299  25.590401  0
20.411800  33.065800  -6.381810  0
19.806900  32.850601  -5.754300  0
14.147900  -65.605400  26.453300  0
24.176701  36.683498  14.029300  0
19.332300  33.223499  -5.699990  0
9.906690  37.591900  23.871099  0
1.163810  38.692101  17.713400  0
1.453340  36.313400  18.068600  0
22.615601  -68.398102  0.988694  0
10.417200  -49.275799  50.785301  0
16.264700  26.069500  -7.149000  0
26.084200  -65.510399  21.361401  0
9.192870  -57.584000  -4.643150  0
18.959400  36.451500  18.623400  0
16.853100  36.273201  17.122900  0
19.093201  -56.101002  -6.510740  0
12.277900  34.528099  22.266800  0
12.096700  34.818298  22.911501  0
4.212400  28.843000  34.872799  0
22.276899  33.880798  13.054000  0
7.103770  36.193501  27.187099  0
31.208799  -58.484600  -1.634830  0
19.547300  31.360600  -5.626970  0
19.061399  33.904999  -7.030720  0
0.831773  27.817301  -4.871680  0
26.512699  -66.476997  2.172150  0
20.766600  -72.148399  8.594100  0
18.713900  -72.458199  8.370200  0
18.311001  -69.455803  8.318020  0
32.925499  -60.866199  10.348000  0
1.127010  37.785400  6.130900  0
30.783800  29.750900  -0.460299  0
28.463800  -60.190498  33.308498  0
8.902670  35.342999  21.145800  0
17.406099  37.393101  17.509100  0
20.482300  38.656601  13.147300  0
20.021500  -67.368698  25.638901  0
6.839410  34.858002  20.786800  0
18.063200  28.150000  -7.500660  0
1.847290  23.313801  -7.855330  0
20.796000  -68.724602  26.638201  0
12.656100  -72.012299  24.706600  0
24.249599  34.124901  19.403700  0
25.651699  29.871500  -2.140770  0
8.341120  35.905701  25.395201  0
4.136680  32.168999  -3.509930  0
20.366100  37.200100  17.286800  0
22.756399  38.729099  11.778400  0
14.698300  -65.932198  29.948099  0
12.335400  -68.517998  21.284500  0
11.165700  -67.253304  12.785200  0
0.904520  36.907299  3.805760  0
25.114401  31.141701  -2.762430  0
7.651230  38.294899  16.674000  0
1.760300  32.149799  -4.647900  0
17.336399  28.127899  -8.050890  0
25.967199  -64.247498  2.496000  0
3.549620  36.526001  21.649200  0
17.193199  29.850901  -8.615420  0
18.658100  28.751301  -6.785730  0
7.690760  -66.264603  8.045300  0
26.769100  36.027500  4.487760  0
26.917299  34.858200  4.401180  0
7.891220  36.108002  20.664499  0
26.339100  31.112101  -2.691500  0
7.109690  30.843901  -9.629080  0
12.564700  29.670700  -11.015600  0
14.560500  38.535198  12.654200  0
13.827300  37.094898  12.767600  0
18.170799  35.961102  18.125900  0
7.630270  -67.274101  9.664270  0
0.964900  28.452999  3.185350  0
11.770200  36.462101  22.079599  0
3.934030  -64.332298  22.321899  0
1.704960  24.830299  -8.367420  0
1.211630  26.049101  -9.822050  0
9.053230  -67.775200  11.377000  0
11.234000  38.128700  16.966299  0
19.031300  31.933100  -7.075020  0
26.688000  -65.012001  2.120130  0
11.004600  39.457699  17.263100  0
6.135420  -71.658897  24.002600  0
21.021400  -67.840797  10.116000  0
15.705300  -69.071503  9.117680  0
9.028800  37.891201  16.321301  0
20.694201  40.653500  8.054850  0
21.303801  39.906700  9.830580  0
17.359800  32.172501  -8.594720  0
18.928200  36.665699  -0.085213  0
7.041170  26.542200  -15.483800  0
3.199290  -62.803799  -0.520352  0
15.196500  -69.449799  -5.027470  0
17.491400  40.278099  5.899270  0
8.234660  39.817402  16.619301  0
3.769930  -61.937401  0.589745  0
6.211230  39.750599  3.928150  0
7.481580  -69.460098  11.129500  0
10.355300  28.058201  -13.992300  0
11.975000  -70.791496  25.384899  0
10.684100  -71.225899  25.622700  0
19.452999  -72.944397  7.664100  0
10.094000  41.976398  3.840200  0
4.869820  -66.894096  -0.431500  0
14.196000  -72.016899  0.091591  0
12.497500  -72.379097  0.945050  0
17.324200  -73.233101  13.659800  0
7.581600  -72.673798  1.331940  0
2.787900  39.443501  3.055810  0
1.652530  37.445900  2.974610  0
5.693230  41.300098  3.558080  0
3.131490  40.871799  3.318710  0
10.262400  -74.728302  6.806940  0
8.564920  43.082802  3.836240  0
7.047620  41.913101  3.377130  0
34.120899  27.979500  7.069700  0
35.141300  28.434799  7.624640  0
36.389702  26.191500  12.048900  0
35.740101  28.046600  12.749500  0
38.489799  22.427799  7.689930  0
36.887100  24.226400  14.684800  0
37.602798  23.858801  15.775800  0
38.394199  24.732100  13.013700  0
39.065800  23.453400  15.251200  0
39.682701  24.301100  11.981600  0
39.280899  23.369301  8.940840  0
38.065201  24.449499  10.599600  0
38.983799  24.505899  10.926800  0
39.987202  21.818300  7.510810  0
40.033501  17.518000  10.013400  0
37.641602  22.242599  19.623400  0
37.752102  20.633699  20.402700  0
39.498901  20.901800  19.184900  0
34.367001  22.025299  23.508499  0
35.000301  22.079201  24.484100  0
37.631199  20.568600  23.596300  0
35.278999  21.629499  25.152599  0
36.725300  18.235100  26.187300  0
36.996601  20.203501  25.011400  0
38.028400  18.025400  25.910400  0
38.564800  18.958500  24.619600  0
39.571800  18.184500  22.689199  0
39.668098  17.500299  24.066999  0
39.311501  18.124901  21.444300  0
41.216499  15.371700  20.956400  0
41.341499  14.636300  19.224800  0
38.193501  23.335100  16.907101  0
41.526501  12.808700  17.567301  0
40.075600  7.454650  13.402000  0
40.965599  12.592500  14.889300  0
41.774502  11.483700  16.182600  0
40.817299  7.499590  16.094999  0
40.866299  3.010730  11.796300  0
33.172699  32.288898  4.371880  0
30.272100  35.203899  4.266990  0
26.446100  35.305401  -3.010420  0
27.094700  36.130600  -1.936800  0
27.534599  36.997398  1.108660  0
26.926300  36.501598  -0.882795  0
29.030399  36.835499  2.560360  0
28.889400  36.424400  5.696980  0
26.856300  37.017101  5.221820  0
24.881001  37.334499  -3.727860  0
22.608900  34.656601  -6.216710  0
21.174299  34.263100  -6.668300  0
18.808500  38.173698  -2.325070  0
18.082800  34.272099  -8.144130  0
13.477500  35.912899  -8.429700  0
18.350599  37.919998  -5.221050  0
17.230101  37.915401  -4.422580  0
15.330700  37.701099  -4.228670  0
14.908800  37.795200  -5.422020  0
21.582399  40.928902  7.339610  0
20.642300  41.026100  5.211420  0
23.171499  38.839100  0.054257  0
22.958099  39.136501  -1.408520  0
20.812000  38.155998  -1.071390  0
19.668100  40.081402  1.622850  0
18.486601  39.170399  1.532670  0
19.735001  38.780102  0.485461  0
22.719500  40.692001  9.327860  0
22.418501  40.057999  10.478600  0
19.866100  41.994400  10.144800  0
13.222600  42.755299  2.562340  0
15.232600  41.236000  5.774510  0
12.377500  42.659901  4.995730  0
13.778200  42.839699  6.219910  0
18.427000  41.404999  6.052350  0
16.988600  42.116798  5.808060  0
14.916900  43.421902  6.711780  0
13.055300  44.233299  8.656830  0
14.936300  42.440800  6.052620  0
12.660700  42.750500  11.581300  0
11.522400  42.074001  13.154200  0
10.132400  42.483799  15.765700  0
33.556900  30.590500  9.735760  0
32.234200  30.378201  9.511870  0
34.356998  29.941099  14.168000  0
25.470800  36.624401  14.299800  0
26.143000  35.810799  13.636300  0
24.574200  37.290298  15.836300  0
23.423100  37.430901  15.962600  0
23.530600  37.716702  17.851601  0
22.020201  37.496300  16.516199  0
21.503599  37.979900  18.372601  0
20.351900  37.616299  18.507099  0
27.444799  31.392799  19.157700  0
23.320101  37.313702  19.270000  0
21.200100  37.540798  20.242901  0
23.693600  35.772499  20.791300  0
24.167299  35.158001  20.135900  0
22.615000  36.457401  21.209101  0
26.756500  32.894699  19.583401  0
27.028099  32.742599  20.377501  0
27.226101  32.106602  21.461700  0
25.569099  34.062000  21.068600  0
29.453400  34.189499  14.522000  0
28.204700  33.548100  16.278500  0
30.264400  30.443100  19.070499  0
35.537498  25.040800  19.809601  0
36.910900  20.211599  1.170960  0
37.142502  18.714800  -0.709995  0
39.450802  2.529810  11.391900  0
34.176899  22.339399  -1.855710  0
25.715500  19.150101  -3.221550  0
32.832699  21.601299  -2.414040  0
28.638901  19.320700  -2.257040  0
27.684299  18.394100  -4.270250  0
28.971500  18.168600  -3.826670  0
29.744301  17.104401  -3.984220  0
30.358101  17.128099  -2.461020  0
27.937901  17.111099  -5.139940  0
26.026600  17.010401  -4.765510  0
20.168600  19.318899  -4.352380  0
43.199402  2.475600  13.814100  0
41.853699  5.353260  18.927601  0
44.045502  3.208630  18.731899  0
42.987000  4.553390  19.404600  0
40.439800  5.840730  19.423300  0
42.165199  6.044120  22.066601  0
43.051102  5.334080  22.314501  0
43.700600  3.918620  20.750299  0
40.769402  15.896400  22.823000  0
38.874599  16.503901  25.845501  0
39.821499  14.731200  25.838200  0
43.339298  4.941160  23.284599  0
41.653198  6.239390  24.048300  0
44.109699  3.075500  22.013500  0
43.482800  2.430550  25.544901  0
43.337601  4.439620  24.905100  0
41.264301  6.893960  25.652500  0
41.856201  6.282800  26.618099  0
42.503700  5.085450  27.093300  0
42.834400  3.446670  27.611700  0
41.198399  6.293810  28.594200  0
41.594799  4.496600  29.964300  0
41.895599  2.523760  30.390699  0
42.339001  -4.659470  7.709140  0
42.575100  -6.941190  6.505440  0
42.249599  -5.822390  5.717590  0
40.787201  -3.528260  5.787720  0
