#!ascii version of surfaces/CC00154XX06/label/lh+rh.surf+labels-reduced.vtk
17692 35376
14769 15086 16772 0
14774 14410 11254 0
16773 16772 16771 0
14775 16773 16771 0
14775 16771 14410 0
14775 14410 14774 0
14774 11256 14612 0
16773 14775 14820 0
16198 16155 16774 0
16774 16155 16775 0
16746 16775 16155 0
16775 16746 16776 0
16776 16746 16747 0
16776 16747 16777 0
16747 16778 16777 0
16778 16747 16741 0
16776 16777 16779 0
16779 16777 16780 0
16781 16775 16776 0
16781 16776 16779 0
16781 16779 16782 0
16783 16782 16784 0
16741 16738 16778 0
16778 16738 16785 0
16785 16738 16786 0
16785 16786 16787 0
16780 16778 16785 0
16780 16785 16787 0
16786 16736 16749 0
16736 16735 16749 0
16786 16749 16751 0
16788 16787 16760 0
16738 16736 16786 0
16751 16787 16786 0
16760 16787 16751 0
16789 16788 16760 0
16789 16760 16761 0
16789 16761 16763 0
16782 16779 16790 0
16784 16782 16790 0
16784 16790 16791 0
16784 16791 9322 0
16780 16777 16778 0
16779 16780 16792 0
16792 16780 16787 0
16792 16787 16788 0
9322 16791 16793 0
16793 16791 16763 0
16763 16791 16790 0
16789 16790 16779 0
16789 16779 16792 0
16789 16792 16788 0
16763 16790 16789 0
16793 16763 16764 0
16794 16784 9322 0
12703 16794 9322 0
12703 9322 9321 0
9321 9323 11183 0
12704 9321 11183 0
12704 11183 11182 0
12703 9321 12704 0
12704 11182 15077 0
9322 16793 9323 0
11183 9323 16764 0
9323 16793 16764 0
14954 11183 16764 0
11183 14954 11181 0
15004 15050 15056 0
16795 15056 14769 0
14769 15056 14767 0
16795 14769 16796 0
16796 14769 16772 0
16796 16772 15022 0
15022 16772 16773 0
15022 16773 14820 0
16198 16774 16200 0
16200 16774 16775 0
16175 16198 16200 0
16775 16781 16797 0
16781 16782 16797 0
16797 16782 16783 0
16797 16783 16798 0
16797 16798 16799 0
16800 16797 16799 0
16801 16200 16797 0
16797 16200 16775 0
16801 16797 16800 0
16199 16200 16203 0
16203 16200 16801 0
16784 16794 16798 0
12703 12702 15102 0
16794 12703 15102 0
16794 15102 16802 0
16802 15102 15069 0
16802 15069 14977 0
16802 14977 16803 0
15004 15056 16795 0
15004 16795 15002 0
15002 16795 14852 0
14852 16795 16796 0
14852 16796 15022 0
15022 14820 12455 0
12454 15022 12455 0
14977 15069 14952 0
16803 14977 14948 0
16803 14948 14947 0
12514 14948 14952 0
16203 16801 16212 0
16212 16801 16800 0
16212 16800 16804 0
16805 16212 16804 0
16805 16804 16806 0
16783 16784 16798 0
16807 16798 16794 0
16807 16794 16802 0
16799 16798 16807 0
16808 16807 16802 0
16806 16804 16799 0
16799 16804 16800 0
16809 16806 16808 0
16808 16806 16807 0
16807 16806 16799 0
16808 16802 16803 0
16810 16806 16809 0
16810 16809 16811 0
16808 16803 16811 0
16812 16811 16803 0
16811 16809 16808 0
16812 16803 14947 0
16212 16805 16211 0
16217 16211 16805 0
16811 16812 16813 0
16810 16811 16813 0
16812 14947 12513 0
16812 12513 16814 0
16217 16805 16815 0
16805 16806 16810 0
16815 16805 16810 0
16810 16813 16815 0
16813 16812 16814 0
16815 16813 16816 0
16816 16813 16814 0
16214 16217 16238 0
16238 16217 16815 0
16238 16815 16816 0
16238 16816 16817 0
15061 15060 16818 0
15654 15061 16819 0
16819 15061 16818 0
15654 16819 16820 0
16818 15060 10657 0
10657 15060 10655 0
10979 16818 10657 0
16819 16818 16821 0
16818 10979 16821 0
10978 10654 14692 0
10979 10978 9797 0
10979 9797 9800 0
11191 14745 16822 0
14745 14766 16822 0
14766 14781 16823 0
16823 14781 15685 0
16823 15685 16824 0
14773 16825 16826 0
16825 16822 16827 0
16827 16822 14766 0
16827 14766 16823 0
16827 16823 16824 0
16826 16825 16828 0
16828 16825 16827 0
16826 16828 16829 0
9798 9797 14674 0
11191 16822 16825 0
14773 11191 16825 0
16826 14845 9440 0
16826 9440 14773 0
16829 14845 16826 0
11827 14845 14864 0
14845 16829 14864 0
13611 13313 13730 0
14207 13972 9690 0
13765 14207 9690 0
9494 13855 9495 0
9495 13855 15684 0
16830 9495 15684 0
16830 15684 9910 0
9907 9495 16830 0
9908 9907 16830 0
9908 16830 9910 0
9907 9909 10292 0
14274 14021 10293 0
10293 14021 8900 0
10293 8900 9907 0
14646 14864 16831 0
14645 14646 16831 0
16831 16832 14792 0
16831 14792 14645 0
16832 16831 16833 0
16832 16833 16834 0
16835 14864 16829 0
14864 16835 16836 0
16833 16831 14864 0
16836 16833 14864 0
16837 16833 16836 0
16837 16836 9032 0
16836 9429 9032 0
9031 16837 9032 0
16838 16828 16827 0
16839 16838 16827 0
16839 16827 16824 0
16839 16824 14376 0
15685 9356 14377 0
14377 9356 9358 0
14375 14377 9358 0
14376 16824 14377 0
14377 16824 15685 0
9030 9032 9642 0
9642 9032 9429 0
9428 9642 9429 0
12978 9428 14112 0
16836 16835 16838 0
9429 16836 16838 0
16838 16835 16828 0
16835 16829 16828 0
16840 16838 16839 0
9430 16840 16839 0
9430 16839 14376 0
16840 9429 16838 0
16840 9430 9429 0
13882 9431 9430 0
13882 9430 14376 0
14016 14207 13765 0
13766 13996 13985 0
16834 16841 16832 0
16841 16834 16842 0
16834 16833 16837 0
16834 16837 16842 0
16837 9031 16843 0
9031 9030 16844 0
16843 9031 16844 0
16844 9030 16845 0
16842 16837 16843 0
16843 16844 16846 0
16847 16841 16842 0
16846 16842 16843 0
16847 16842 16846 0
16848 16846 16849 0
16847 16846 16848 0
16848 16849 16850 0
9030 9642 13706 0
16850 16849 16851 0
16845 9030 13706 0
14215 14210 13705 0
16849 16846 16845 0
16845 16846 16844 0
14209 16851 16845 0
16851 16849 16845 0
14209 16845 13706 0
13705 14210 14209 0
13705 14209 13706 0
14215 13705 14216 0
9785 16851 14209 0
9600 9785 14209 0
12151 14215 12152 0
12152 14215 10898 0
10316 10944 10352 0
16820 16819 16852 0
15654 16820 16721 0
16721 16820 16722 0
16821 10979 14930 0
10979 9800 14930 0
16853 16821 14930 0
16853 14930 16854 0
16722 16820 16855 0
16820 16852 16855 0
16852 16819 16821 0
16852 16821 16853 0
16856 16855 16852 0
16856 16852 16853 0
16855 16856 16857 0
16723 16722 16855 0
16723 16855 16857 0
9800 9799 10236 0
9799 9710 10236 0
16858 14929 15005 0
14792 16832 12256 0
12255 9711 14621 0
8868 15005 14929 0
16859 15005 14997 0
16860 16859 14997 0
16725 16723 16857 0
16856 16853 16861 0
16862 16857 16856 0
16862 16856 16861 0
16857 16862 16863 0
16862 16861 16864 0
16861 16853 16854 0
16854 14930 10235 0
16858 16854 14929 0
14929 16854 10235 0
16864 16861 16858 0
16865 16864 16858 0
16858 16861 16854 0
16865 16858 16859 0
16858 15005 16859 0
16865 16859 16860 0
16725 16857 16866 0
16725 16866 16729 0
16866 16857 16863 0
16866 16863 16867 0
16729 16866 16731 0
16864 16865 16868 0
16862 16864 16868 0
16863 16862 16868 0
16865 16860 16869 0
16868 16865 16869 0
16863 16868 16870 0
16866 16867 16871 0
16734 16731 16871 0
16871 16731 16866 0
16871 16867 16872 0
16867 16863 16870 0
16872 16867 16870 0
16732 16731 16734 0
16734 16871 16735 0
16735 16871 16872 0
16832 16841 12254 0
12254 16841 16873 0
16873 16847 16874 0
16848 16874 16847 0
16874 16848 16875 0
16873 16841 16847 0
14843 16873 16874 0
12254 16873 14843 0
14844 14843 16874 0
14844 16874 11804 0
16851 9785 16850 0
9786 16850 9785 0
12152 9489 9488 0
9745 9602 9746 0
11803 14844 11804 0
16874 16875 11804 0
10704 16875 16848 0
10704 16848 9786 0
9786 16848 16850 0
10704 11804 16875 0
11804 10704 9960 0
10248 9960 10704 0
10248 9786 9603 0
14844 11803 9929 0
9929 11803 10709 0
9602 9745 10255 0
10247 9602 10255 0
9814 9958 10247 0
16735 16872 16876 0
16876 16872 16877 0
16877 16872 16870 0
16878 16877 16879 0
16880 16868 16869 0
16870 16868 16880 0
16880 16869 16881 0
16880 16881 16882 0
16879 16877 16883 0
16883 16877 16870 0
16883 16870 16880 0
16884 16879 16885 0
16885 16879 16883 0
16880 16882 16886 0
16883 16880 16886 0
16883 16886 16885 0
16887 16885 16888 0
16887 16888 16889 0
16890 14997 9313 0
16890 9313 15010 0
8869 12255 8870 0
12256 16832 12254 0
12254 11565 8870 0
16888 16885 9090 0
16885 16886 9090 0
16886 16882 16891 0
9041 9090 16886 0
9041 16886 16891 0
9041 16891 9047 0
16882 16881 16891 0
16891 16881 16890 0
16881 16869 16890 0
16890 16869 16860 0
16890 16860 14997 0
9047 16891 15011 0
15011 16891 15010 0
15010 16891 16890 0
16889 16888 9735 0
16888 9090 9091 0
9735 16888 9091 0
16892 9735 9091 0
16892 9091 16893 0
16892 16893 16894 0
9047 15011 9049 0
16893 9091 9043 0
16893 9043 9801 0
16894 16893 9801 0
16894 9801 14762 0
16894 14762 9348 0
14700 16894 9348 0
14700 9348 9347 0
14762 9926 12328 0
16735 16876 16749 0
16876 16877 16878 0
16749 16876 16878 0
16878 16879 16884 0
16749 16878 16750 0
16754 16750 16878 0
16885 16887 16895 0
16887 16889 16896 0
16896 16889 16897 0
16895 16887 16898 0
16887 16896 16898 0
16898 16896 16899 0
16754 16878 16884 0
16895 16884 16885 0
16754 16884 16895 0
16754 16895 16898 0
16754 16898 16900 0
16755 16754 16901 0
16901 16754 16900 0
16755 16901 16757 0
16889 9735 16897 0
16897 9735 9737 0
9735 16892 9736 0
12518 9737 9736 0
16892 16894 15001 0
15001 16894 14700 0
9736 16892 15001 0
9736 15001 11124 0
9831 12340 9830 0
9830 12340 9383 0
9830 9383 9838 0
9597 9384 9592 0
9838 9383 9384 0
9599 9838 9384 0
9599 9384 9597 0
16757 16901 16902 0
16898 16899 16900 0
16901 16900 16903 0
16903 16902 16901 0
16899 16896 8984 0
8984 16896 11425 0
11425 16896 11426 0
16896 16897 11426 0
11426 16897 9737 0
11426 9737 12518 0
8984 11425 12340 0
8984 12340 9831 0
16904 16902 9839 0
16902 16903 9839 0
16903 16900 8983 0
8983 16900 16899 0
8983 16899 8984 0
9839 16903 8983 0
9839 8983 8985 0
9840 16904 9839 0
14413 9840 9851 0
9840 9599 9598 0
16757 16902 16765 0
16765 16902 16905 0
16905 16902 16904 0
16767 16765 16905 0
16767 16905 15051 0
15051 16905 12253 0
15051 12253 12252 0
16904 9840 16906 0
16906 9840 14413 0
14414 16906 14413 0
16905 16904 16906 0
12253 16905 16906 0
14414 12253 16906 0
12960 10885 14865 0
14385 11132 14770 0
16907 14770 11134 0
16907 11134 16908 0
16909 16907 16910 0
16911 16909 16910 0
16912 14857 14860 0
14860 16252 16913 0
16914 16252 16251 0
16913 16252 16914 0
16914 16251 16915 0
16916 16913 16914 0
16912 14860 16913 0
16915 16916 16914 0
16916 16915 16917 0
16916 16917 16918 0
16919 16918 16917 0
16919 16917 16920 0
16911 16910 16921 0
16922 16911 16921 0
16910 16907 16923 0
16908 11134 14857 0
11134 11133 14857 0
16908 14857 16912 0
16913 16923 16912 0
16923 16908 16912 0
16923 16907 16908 0
16916 16921 16910 0
16916 16910 16923 0
16916 16923 16913 0
16922 16921 16918 0
16922 16918 16919 0
16921 16916 16918 0
16911 16922 16924 0
16924 16922 16925 0
16924 16925 16926 0
16922 16919 16925 0
16925 16919 16927 0
16928 16925 16927 0
16926 16925 16929 0
16929 16925 16928 0
16930 16929 16931 0
16915 16251 16249 0
16915 16249 16932 0
16915 16932 16933 0
16247 16246 16932 0
16932 16246 16934 0
16935 16934 16936 0
16935 16936 16937 0
16937 16938 16935 0
16938 16933 16935 0
16932 16249 16247 0
16935 16933 16932 0
16935 16932 16934 0
16939 16937 16940 0
16939 16940 16941 0
16246 16242 16934 0
16934 16242 16942 0
16242 16240 16942 0
16936 16942 16943 0
16943 16942 16239 0
16239 16238 16817 0
16943 16239 16817 0
16944 16943 16817 0
16944 16945 16946 0
16947 16943 16944 0
16942 16240 16239 0
16946 16947 16944 0
16948 16947 16946 0
16948 16946 16949 0
14803 16948 16949 0
16950 16941 16940 0
16950 16940 16951 0
16952 16937 16936 0
16936 16934 16942 0
16947 16952 16943 0
16952 16936 16943 0
16951 16940 16948 0
16952 16940 16937 0
16948 16940 16947 0
16947 16940 16952 0
16951 16948 14803 0
16941 16950 16953 0
16953 16950 11250 0
11250 16950 16951 0
11249 11250 11584 0
16951 14803 11585 0
11586 11585 14602 0
11250 16951 11585 0
11584 11250 11585 0
16931 16929 16954 0
16954 16929 16928 0
16954 16928 16955 0
16928 16927 16956 0
16956 16955 16928 0
16957 16954 16955 0
16958 16957 16955 0
16957 16958 16959 0
16958 14760 11129 0
16959 16958 11129 0
11834 16959 11129 0
11834 11129 11636 0
16927 16919 16920 0
16960 16927 16920 0
16917 16915 16933 0
16938 16917 16933 0
16960 16920 16938 0
16938 16920 16917 0
16961 16960 16939 0
16939 16960 16938 0
16939 16938 16937 0
16941 16961 16939 0
11636 11129 11748 0
14760 16958 16955 0
14760 16955 14761 0
11748 11129 11128 0
11129 14760 11130 0
14761 16955 16956 0
16956 16927 16960 0
14761 16956 16961 0
16961 16956 16960 0
16962 11130 14761 0
14761 16961 16962 0
16962 16961 16941 0
16953 16962 16941 0
11130 16962 16953 0
11130 16953 11250 0
11128 11130 11250 0
16963 13708 11518 0
16963 11518 16964 0
16931 16954 16965 0
16965 16954 16957 0
16966 16965 16967 0
16965 16957 16959 0
16968 16959 11834 0
16968 11834 14100 0
14100 11834 11635 0
16967 16965 16959 0
16967 16959 16968 0
16969 16967 16970 0
16967 16968 16970 0
16968 14100 16970 0
13755 16970 13757 0
13757 16970 14100 0
11295 13708 16963 0
11295 16963 13075 0
13075 16963 16964 0
13075 16964 16971 0
16972 13075 16971 0
13076 13075 16972 0
16972 16971 16973 0
13076 16972 16973 0
10919 10918 14181 0
10919 14181 16974 0
16974 14181 16975 0
14181 10986 13076 0
16975 14181 16973 0
16973 14181 13076 0
16975 16973 16976 0
16976 16973 16977 0
16974 16978 10919 0
16974 16975 16976 0
16979 16974 16976 0
16976 16977 16980 0
9862 16979 16976 0
9862 16976 16980 0
9862 16980 9860 0
14770 16907 16981 0
16981 16907 16909 0
16981 16909 16982 0
16982 16909 16983 0
16984 14385 14770 0
16981 16984 14770 0
14186 14385 16984 0
16984 16981 16982 0
16984 16982 16985 0
16926 16929 16930 0
16924 16926 16986 0
16926 16930 16986 0
16986 16930 16987 0
16986 16988 16989 0
16990 16985 16982 0
16990 16982 16983 0
16990 16983 16991 0
16991 16983 16992 0
16983 16909 16993 0
16993 16909 16911 0
16993 16911 16924 0
16993 16924 16994 0
16994 16992 16993 0
16992 16983 16993 0
16986 16994 16924 0
16990 16991 16995 0
16995 16991 16996 0
16989 16994 16986 0
16996 16991 16992 0
16992 16994 16997 0
16997 16994 16989 0
16996 16992 16997 0
16996 16997 16998 0
16931 16965 16966 0
14433 16970 13755 0
16969 16970 14433 0
16969 16966 16967 0
16999 16966 16969 0
14432 16969 14433 0
17000 16966 16999 0
16999 16969 14432 0
14433 13755 13754 0
16999 14432 17001 0
16978 16974 16979 0
16978 16979 17002 0
13540 10919 16978 0
16979 9862 17003 0
9862 9861 17003 0
13540 16978 17002 0
17004 17002 16979 0
17004 16979 17003 0
17002 17004 17005 0
13539 10919 13540 0
17005 13538 13540 0
17005 13540 17002 0
13916 13538 17005 0
13769 13538 9923 0
9923 13538 13916 0
17006 16997 16989 0
17006 16989 17007 0
17007 16989 16988 0
17007 17008 17009 0
16988 16986 17010 0
17010 16987 17011 0
17010 16986 16987 0
16987 16930 16931 0
17011 16987 16931 0
17000 17011 16931 0
17000 16931 16966 0
17008 17007 16988 0
17008 16988 17010 0
17012 17008 17010 0
17011 17012 17010 0
17012 17011 17000 0
17001 17013 17012 0
17012 17000 16999 0
17001 17012 16999 0
17009 17008 17014 0
17008 17012 17014 0
17014 17012 17013 0
14586 17013 14406 0
14472 17001 14432 0
14472 14432 13754 0
13787 14472 13754 0
13787 13754 13756 0
14472 17013 17001 0
14406 17013 14472 0
14324 13787 13786 0
16998 16997 17006 0
16998 17006 17015 0
17016 17006 17007 0
17015 17006 17017 0
17017 17006 17016 0
17014 17013 14586 0
14323 14324 13937 0
14323 17018 14586 0
11398 17014 14586 0
11398 14586 17018 0
17015 17017 17019 0
17009 17016 17007 0
17020 17017 17016 0
17009 17020 17016 0
17021 17020 17009 0
17021 17009 17022 0
17022 17009 17014 0
11398 17022 17014 0
17022 11398 14688 0
17015 17019 17023 0
17017 17020 17019 0
17023 17019 17024 0
17025 17020 17021 0
17026 17021 17022 0
17026 17022 17027 0
17024 17019 15291 0
15291 17019 17025 0
17019 17020 17025 0
17025 17021 17026 0
17025 17026 15292 0
15291 17025 15292 0
17024 15291 15289 0
16984 16985 14354 0
14354 14186 16984 0
16335 14183 13360 0
16336 16335 16338 0
16335 13360 14028 0
16338 16335 14028 0
16337 16338 16341 0
16985 16990 17028 0
16995 16996 17029 0
16995 17029 17030 0
14355 14354 17028 0
17028 16990 16995 0
17030 17028 16995 0
14355 17028 14365 0
14365 17028 17030 0
14109 14364 10644 0
13717 14109 10644 0
16338 14028 17031 0
17031 14028 10774 0
14354 16985 17028 0
16338 17031 16341 0
10774 14028 10775 0
16341 17031 16346 0
16346 17031 10774 0
16346 10774 10773 0
16346 16349 16344 0
16346 10773 16349 0
17029 16998 17032 0
17029 17032 17033 0
16998 17015 17032 0
17033 17032 17034 0
17032 17015 17034 0
17033 17034 17035 0
17036 17033 17035 0
17037 17035 14367 0
10645 17037 14367 0
17037 17036 17035 0
17034 17023 17024 0
17038 17034 17024 0
15446 17024 15289 0
14455 15446 11548 0
14455 11548 14331 0
17038 17024 17039 0
14211 17038 17039 0
17039 17024 15446 0
14455 17039 15446 0
14211 17039 14455 0
17040 17038 14211 0
17034 17015 17023 0
17038 17035 17034 0
17040 14367 17035 0
17040 17035 17038 0
14213 14367 17040 0
14213 17040 14211 0
14270 13686 17041 0
17042 17041 13686 0
17042 13686 14173 0
17042 14173 14187 0
17042 14187 15445 0
9795 16349 10773 0
17043 11808 11453 0
17043 11453 14175 0
11808 17043 11809 0
11809 17043 17044 0
17029 16996 16998 0
14365 17030 17037 0
17030 17029 17033 0
17030 17033 17036 0
17037 17030 17036 0
10644 14364 14365 0
10644 14365 17037 0
10645 10644 17037 0
17044 17043 17045 0
17046 17044 17045 0
17047 17045 17048 0
17045 17043 14175 0
17045 14175 12118 0
14175 11453 9878 0
12118 17048 17045 0
17048 12118 12117 0
17041 17048 12117 0
17045 17047 17046 0
17047 17048 17041 0
17041 12117 14270 0
17049 17046 17050 0
17046 17047 17050 0
17050 17047 17041 0
17042 17050 17041 0
17050 17042 15445 0
15445 17049 17050 0
17049 15445 15438 0
9794 16349 9795 0
9795 13946 9796 0
12347 9796 13946 0
11809 17044 17051 0
17044 17046 17052 0
17051 17044 17053 0
17044 17052 17053 0
17052 17046 17049 0
17049 15438 15436 0
17052 17049 15436 0
17053 17052 15437 0
15437 17052 15436 0
15437 15434 15433 0
14102 14101 17054 0
9632 11807 14101 0
11807 11809 17051 0
17055 14101 11807 0
17055 11807 17051 0
17054 14101 17055 0
17053 17055 17051 0
17055 17053 17056 0
17056 17053 15437 0
9817 10662 14102 0
9817 14102 16304 0
17054 17055 17056 0
17056 15437 15433 0
17056 15433 15432 0
16304 14102 17054 0
15432 17054 17056 0
16304 17054 16303 0
16303 17054 15432 0
15264 15432 15431 0
15432 15264 16303 0
16372 17057 17058 0
16373 16372 17059 0
17059 16372 17058 0
17057 17060 17058 0
17061 16373 17059 0
17062 17061 17059 0
17063 13326 15157 0
15157 13326 13206 0
17063 15157 17064 0
17064 15157 15156 0
15157 13272 15156 0
17065 17062 17059 0
17063 17059 17058 0
17058 17060 17063 0
17060 13326 17063 0
17065 17059 17064 0
17064 17059 17063 0
15156 17065 17064 0
17066 17062 17065 0
17067 17066 17065 0
15155 17065 15156 0
17067 17065 15155 0
16403 16371 16373 0
16403 16373 17061 0
17068 17061 17062 0
17068 16403 17061 0
16404 16403 17068 0
17067 15155 15154 0
17069 17066 17067 0
17069 17067 13074 0
13658 17068 17070 0
13658 16404 17068 0
17070 17062 17066 0
17070 17068 17062 0
17069 17070 17066 0
17071 13658 17070 0
17071 12156 13658 0
12156 17071 12157 0
17071 17070 17069 0
12086 17071 17069 0
12086 17069 13074 0
12157 17071 13782 0
13782 12203 12157 0
12088 17071 12086 0
12203 13782 16405 0
16406 16405 13782 0
13782 17071 12088 0
16406 13782 13781 0
16371 16369 16372 0
16372 16369 16370 0
16372 16370 17057 0
16370 16368 13418 0
17057 16370 13418 0
17057 13418 17072 0
13418 12643 13408 0
11607 9931 12738 0
12738 9931 11641 0
11640 10615 11538 0
11641 11640 13927 0
12738 11641 17073 0
12360 12145 11607 0
12737 12360 11607 0
13339 10928 12912 0
17060 17057 17072 0
13326 17060 17072 0
13326 17072 13410 0
17072 13418 13408 0
13418 16368 12642 0
13253 17072 13408 0
17072 13253 13410 0
13253 13408 13407 0
13253 13407 13163 0
13326 13410 13183 0
9490 10316 10318 0
10519 8904 8906 0
9267 8906 10007 0
13987 10130 9266 0
9266 11421 13987 0
11421 9266 17074 0
9265 9290 9848 0
17074 9266 9850 0
9850 9266 9265 0
9850 9265 9848 0
9745 9747 10255 0
9814 10255 8925 0
17074 9850 9849 0
17074 9849 10314 0
11376 11421 17074 0
11376 17074 10314 0
8925 9747 8926 0
9050 9052 10268 0
10768 9052 10162 0
10268 9052 10767 0
10162 10161 11035 0
10162 11035 17075 0
10955 10767 10766 0
10767 9052 10768 0
10768 10162 17075 0
12677 10766 17075 0
10766 10768 17075 0
12677 17075 17076 0
17076 17075 11035 0
11552 12677 17077 0
12677 17076 17077 0
17078 11552 17077 0
17079 17078 17080 0
9850 9848 10196 0
9363 10507 10031 0
10031 10030 10445 0
9363 10031 10022 0
9387 9985 9482 0
9084 10196 9147 0
9045 11795 9046 0
12271 9045 10892 0
10892 9044 10173 0
10173 9044 9116 0
10892 10173 17079 0
17079 10173 11552 0
17079 11552 17078 0
8986 9592 8987 0
9592 8986 9597 0
14925 8986 8989 0
9598 9597 14925 0
14925 9597 8986 0
9385 9045 12271 0
10892 17079 17080 0
10892 17080 12413 0
12270 12271 12413 0
11157 12270 12413 0
11157 12413 14305 0
9851 9598 14925 0
8989 9869 14485 0
14485 14925 8989 0
14485 9869 14486 0
9851 14924 14414 0
14484 14486 11092 0
10788 14484 11092 0
10559 11156 14393 0
10835 10559 14393 0
14865 10835 14394 0
14865 14394 12960 0
10681 11590 11154 0
10681 11154 10789 0
13518 11158 13199 0
14378 14143 10067 0
14378 9312 9311 0
16436 14465 10884 0
14465 14378 9311 0
10884 14465 9311 0
10884 9311 8864 0
16433 9506 14465 0
16433 14465 16436 0
16436 10884 8866 0
16436 8866 9810 0
8888 8887 10291 0
8889 10291 17081 0
8889 17081 9282 0
17081 10291 10292 0
9282 17081 9324 0
9324 17081 17082 0
9296 8886 8889 0
8889 8888 10291 0
9283 9324 17083 0
11190 10292 9909 0
17084 16082 11190 0
11190 9910 17084 0
17084 15684 15567 0
17084 15567 16082 0
16082 15567 16083 0
17085 11190 16082 0
17084 9910 15684 0
16081 17085 16082 0
14408 17085 16081 0
16080 14408 16081 0
17086 17087 9324 0
9324 17087 17083 0
14313 17086 12059 0
17081 10292 17082 0
17082 10292 11190 0
17085 17082 11190 0
12059 17086 14408 0
17086 9324 17082 0
17082 14408 17086 0
14408 17082 17085 0
16080 12060 14408 0
17083 17087 9804 0
9804 17087 14313 0
14313 17087 17086 0
12060 16080 13894 0
14313 12058 10270 0
10272 14313 10270 0
9802 10272 13317 0
16435 9810 9809 0
9772 9419 17088 0
9772 9774 8867 0
9772 8867 9419 0
9773 9772 17089 0
9772 17088 17090 0
8865 9310 9496 0
8865 9496 9420 0
9496 10067 13620 0
9496 13620 17091 0
9496 17091 9497 0
9420 9496 9295 0
8886 13620 9250 0
17091 13620 8886 0
8886 9497 17091 0
9296 9497 8886 0
17092 9294 9281 0
17092 9281 9283 0
17090 17088 17093 0
17088 9419 10495 0
17094 17093 17088 0
17094 17088 10495 0
17094 17092 17095 0
10495 9294 17092 0
17092 17094 10495 0
17095 17092 9283 0
17095 9283 17083 0
17096 17093 17097 0
17096 17097 16068 0
9803 17095 17083 0
9803 17083 9804 0
9805 17097 17095 0
17093 17094 17097 0
17097 17094 17095 0
9805 17095 9803 0
16068 17097 9805 0
9804 14313 10272 0
9802 9804 10272 0
9809 9773 17098 0
16448 9809 17098 0
17089 9772 17090 0
17098 9773 17089 0
17099 17098 17089 0
16448 17098 17100 0
17100 17098 17099 0
16448 17100 16450 0
17090 17093 17096 0
9805 9802 16066 0
16068 9805 16066 0
17101 17090 17096 0
17096 16068 17101 0
17101 16068 16063 0
17101 16063 16057 0
16455 17100 17099 0
17099 17102 17103 0
17102 17099 17089 0
17101 17102 17089 0
17101 17089 17090 0
17103 17102 17101 0
16055 17101 16057 0
17100 16455 16450 0
16455 17099 17103 0
17104 16455 17103 0
16054 17103 17101 0
16054 17101 16055 0
16454 16455 17104 0
16454 17104 16053 0
17104 17103 16054 0
16054 16053 17104 0
16454 16053 16044 0
15939 17105 15940 0
15940 17105 17106 0
17106 17105 17107 0
14779 15940 17106 0
14779 17106 13320 0
17108 17109 17110 0
17111 17108 17110 0
17112 17113 17114 0
17110 17109 17115 0
13320 17106 17116 0
17106 17107 17111 0
17107 17108 17111 0
17116 17106 17117 0
17111 17117 17106 0
14912 13321 13320 0
14912 13320 17116 0
17118 13473 15008 0
10468 10696 17119 0
10469 10468 17120 0
10468 17119 17120 0
14992 10467 10469 0
14992 10469 17121 0
17121 10469 17120 0
17121 17120 17122 0
10696 11709 11711 0
10696 11711 17119 0
17119 11711 15079 0
15079 11711 15092 0
15075 11326 17123 0
15066 11325 15076 0
17122 17120 17124 0
17120 17119 15080 0
15080 17119 15079 0
11238 17124 11240 0
17124 17120 15080 0
11240 17124 15080 0
17122 17124 17125 0
17125 17124 11238 0
17125 11238 14940 0
11627 17125 14940 0
14912 17116 17126 0
17111 17110 17127 0
17128 17117 17111 0
17128 17111 17127 0
17129 17126 17128 0
17126 17116 17117 0
17126 17117 17128 0
17129 17128 17130 0
17110 17115 17131 0
17115 17112 17131 0
17131 17112 17114 0
17114 17113 17118 0
15008 17114 17118 0
15008 17131 17114 0
17121 15008 14992 0
17131 15008 17121 0
17130 17128 17132 0
17132 17128 17127 0
17132 17127 17133 0
17133 17127 17110 0
17133 17110 17131 0
17131 17121 17122 0
17130 17132 15020 0
17133 17131 17122 0
15021 17133 17122 0
15021 17122 17125 0
15020 17132 15021 0
17132 17133 15021 0
15021 17125 11627 0
11618 15021 11627 0
14912 17126 14753 0
14753 17126 17129 0
17130 15020 17134 0
17129 17130 17134 0
17134 15020 11618 0
14753 17129 12535 0
17129 17134 12533 0
12535 17129 12533 0
12533 17134 11618 0
14906 14587 14982 0
15958 14942 14906 0
15958 14906 17135 0
17135 14906 14982 0
15958 17135 15979 0
15959 15958 15979 0
17123 9396 12327 0
12327 11876 17136 0
17137 12327 17136 0
17137 17136 17138 0
17139 17136 11876 0
17139 11876 11878 0
17136 17139 17140 0
17138 17136 17140 0
17141 9513 9515 0
17141 9515 17142 0
17143 17144 17145 0
17144 12154 17146 0
17145 17144 17146 0
17142 9515 17143 0
17142 17143 17145 0
17141 17142 17147 0
17142 17145 17148 0
17142 17148 17147 0
17149 17150 17141 0
17141 17150 17140 0
17139 11878 17151 0
17139 17151 9513 0
17140 17139 9513 0
17140 9513 17141 0
17149 17141 17147 0
17152 17149 17147 0
17152 17147 17153 0
17154 17149 17152 0
17154 17152 12475 0
12475 17152 17155 0
12154 12153 12444 0
11839 17156 11840 0
17156 15108 11840 0
11838 11840 9624 0
12443 12442 15101 0
10485 10262 10932 0
10485 10932 10708 0
11840 15108 9625 0
9913 11417 9327 0
9327 11417 10759 0
9326 9913 9327 0
9287 9328 9288 0
9288 9327 10759 0
9287 9289 17157 0
11217 9287 17157 0
17155 17152 17158 0
17158 17152 17153 0
17153 17147 17159 0
17160 17153 17159 0
17160 17159 17161 0
17160 17161 17162 0
17159 17147 17148 0
17148 17145 17163 0
17163 17145 17164 0
17163 17164 17165 0
17166 17146 12154 0
17166 12154 12444 0
17167 17166 12444 0
17165 17164 17167 0
17167 17164 17166 0
17164 17145 17146 0
17166 17164 17146 0
17165 17167 17168 0
17167 12444 12443 0
17168 17167 12443 0
17168 12443 15103 0
15103 12443 15101 0
17162 17161 17169 0
17170 17169 17171 0
17161 17159 17148 0
17161 17148 17163 0
17171 17169 17165 0
17169 17161 17163 0
17165 17169 17163 0
17171 17165 17168 0
17172 17171 17168 0
17172 17168 15103 0
17170 17171 17172 0
17170 17172 15118 0
17173 17170 15118 0
15118 17172 15103 0
15117 15118 15103 0
17174 17155 17158 0
17175 17153 17160 0
17175 17160 17162 0
17174 17158 17176 0
17176 17158 17153 0
17176 17153 17175 0
17169 17170 17177 0
17162 17169 17177 0
17162 17177 17178 0
17177 17170 17173 0
17177 17173 17179 0
17178 17177 17179 0
17179 17173 15088 0
17173 15118 12494 0
15087 17173 12494 0
15088 17173 15087 0
17179 15088 17180 0
15088 12494 15121 0
17180 15088 17181 0
17181 15088 15121 0
17182 17176 17183 0
17183 17176 17175 0
17183 17175 17184 0
17175 17162 17185 0
17185 17162 17178 0
17185 17178 17179 0
17184 17175 17185 0
17186 17184 17185 0
17186 17185 17179 0
17184 17186 17187 0
17186 17179 17180 0
17187 17186 17180 0
17187 17180 17181 0
17183 17184 17188 0
17181 15121 17189 0
17189 17187 17181 0
17188 17184 17190 0
17190 17184 17187 0
17190 17187 17189 0
17191 17188 17190 0
17135 14982 17192 0
14982 14750 17193 0
17192 14982 17193 0
15027 15979 17135 0
15027 17135 17192 0
15027 17192 11655 0
11861 12488 17194 0
17194 12488 12489 0
11861 17194 11862 0
17192 17193 14704 0
11624 11655 14704 0
11655 17192 14704 0
11624 14704 11622 0
14704 17193 14750 0
15065 11655 11654 0
11860 11862 12338 0
11860 12338 9214 0
15064 14944 17195 0
15064 17195 17196 0
11619 11628 15082 0
11621 11619 15082 0
17197 11621 17198 0
11621 15082 15076 0
11621 15076 17199 0
17198 11621 17199 0
17200 17197 17201 0
15076 15075 17199 0
17199 15075 17202 0
17203 17199 17202 0
17203 17202 17204 0
17205 17203 17204 0
15075 17123 17202 0
17202 17123 17137 0
11326 9396 17123 0
17137 17123 12327 0
17205 17204 17138 0
17204 17202 17137 0
17137 17138 17204 0
17150 17138 17140 0
17200 17201 17206 0
17197 17198 17205 0
17198 17199 17203 0
17205 17198 17203 0
17201 17197 17205 0
17207 17206 17154 0
17206 17201 17150 0
17154 17206 17150 0
17201 17205 17138 0
17150 17201 17138 0
17200 17206 17207 0
17208 17207 17209 0
17208 17209 15113 0
17154 17150 17149 0
17209 17207 17210 0
17210 17207 17154 0
17209 17210 12475 0
12475 17210 17154 0
15113 17209 12474 0
12474 17209 12475 0
17195 14944 15090 0
11862 17194 17211 0
11897 11862 17211 0
17211 17194 12489 0
17211 12489 17212 0
12489 11620 11621 0
12489 11621 17197 0
17200 17211 17212 0
17197 17212 12489 0
17212 17197 17200 0
9662 9212 11896 0
11897 17211 17200 0
9661 9662 17213 0
17213 9662 11896 0
17213 11896 11897 0
17213 11897 17214 0
17214 11897 17200 0
17207 17214 17200 0
9661 17213 15113 0
17213 17214 17208 0
15113 17213 17208 0
17214 17207 17208 0
17195 15090 17215 0
17196 17195 17215 0
15120 15090 15054 0
17215 15090 15120 0
17216 17215 15115 0
15115 17215 15120 0
17215 17216 17217 0
15115 15114 17218 0
15115 17218 17219 0
12473 12475 17155 0
15114 12473 17155 0
17218 15114 17155 0
17218 17155 17174 0
17220 17219 17174 0
17219 17218 17174 0
17220 17174 17176 0
17182 17220 17176 0
17221 17217 17222 0
17216 15115 17219 0
17216 17219 17220 0
17217 17216 17220 0
17182 17222 17220 0
17220 17222 17217 0
17222 17182 17223 0
17224 17222 17223 0
17223 17182 17183 0
17223 17183 17188 0
17224 17223 17188 0
15960 15979 12111 0
15979 15027 12112 0
12111 15979 12112 0
11927 12111 11193 0
11927 11193 11192 0
15065 15064 15026 0
15064 17196 17225 0
17226 15026 15064 0
17226 15064 17225 0
11193 12112 15026 0
15026 11655 15065 0
11194 11193 15026 0
11194 15026 17226 0
17227 11194 17226 0
14943 11928 17228 0
11194 17227 11192 0
11192 17227 17229 0
11928 11192 17229 0
17228 11928 17229 0
17228 17229 17230 0
14943 17228 14976 0
14976 17228 11148 0
17196 17215 17231 0
17196 17231 17232 0
17233 17196 17232 0
17215 17217 17231 0
17217 17221 17234 0
17231 17217 17234 0
17232 17231 17234 0
17235 17232 17234 0
17222 17224 17236 0
17221 17222 17236 0
17188 17191 17224 0
17237 17236 17238 0
17236 17224 17238 0
17237 17238 17239 0
17235 17234 17240 0
17240 17234 17241 0
17234 17221 17237 0
17237 17221 17236 0
17237 17241 17234 0
17241 17237 17239 0
17235 17240 17242 0
17241 17239 17243 0
17242 17240 17243 0
17243 17240 17241 0
17242 17243 17244 0
17245 17244 17243 0
11148 17228 17230 0
11148 17230 11149 0
17229 17227 17246 0
11149 17230 17247 0
17230 17229 17248 0
17247 17230 17248 0
17226 17225 17233 0
17233 17225 17196 0
17249 17227 17250 0
17227 17226 17233 0
17250 17227 17233 0
17250 17233 17232 0
17250 17232 17235 0
17251 17248 17246 0
17248 17229 17246 0
17251 17246 17249 0
17251 17249 17252 0
17249 17246 17227 0
17252 17249 17242 0
17242 17249 17250 0
17235 17242 17250 0
17244 17252 17242 0
17252 17244 17245 0
11147 11149 17247 0
11147 17247 17253 0
14797 11147 17253 0
14732 14797 17253 0
15981 14732 17253 0
17252 17245 17254 0
17255 17251 17252 0
17252 17254 17255 0
15982 15981 17256 0
15981 17253 17256 0
17253 17247 17256 0
17256 17247 17248 0
17257 17256 17248 0
17251 17257 17248 0
15982 17256 15983 0
17256 17257 15984 0
17257 17251 15984 0
15983 17256 15984 0
17251 17255 17258 0
17255 17259 17260 0
17258 17255 17260 0
15984 17251 17258 0
11543 15984 17258 0
11543 17258 11321 0
17261 17262 17263 0
17105 15939 17261 0
17107 17105 17108 0
17105 17261 17108 0
17261 17263 17108 0
17262 17264 17265 0
10373 17266 17267 0
17264 10373 17267 0
17265 17264 17267 0
17265 17267 17268 0
17268 17267 17269 0
14328 17267 17266 0
17269 17267 14328 0
17269 14328 10062 0
17269 10062 10061 0
17109 17108 17263 0
17109 17263 17115 0
17115 17263 17265 0
17265 17263 17262 0
17270 17268 17269 0
17270 17269 10061 0
17112 17268 17270 0
17270 10061 17271 0
17115 17265 17268 0
17112 17115 17268 0
17113 17112 17270 0
17113 17270 17271 0
17113 17271 17118 0
17272 17273 17274 0
15055 17272 17274 0
17273 17275 17276 0
17276 17275 17277 0
17274 17273 17276 0
17278 10929 15055 0
17279 15055 17274 0
17279 17274 17280 0
10585 17274 17276 0
17280 17274 10585 0
17276 17277 17281 0
17281 17277 10477 0
17281 10477 9479 0
10585 17276 17281 0
10586 10585 17281 0
10586 17281 9479 0
9100 10586 9101 0
9101 10586 9479 0
17280 10585 17282 0
17282 10585 9100 0
17282 9100 10813 0
17282 10813 17283 0
13473 17118 17271 0
13473 17271 13474 0
13474 17271 10063 0
17271 10061 10063 0
14990 15012 14832 0
15012 14990 10929 0
15012 10929 17278 0
17278 15055 17279 0
17284 14972 14971 0
17284 14971 17278 0
17285 17284 17278 0
17285 17278 17286 0
17278 14971 15012 0
15012 14971 14921 0
17286 17278 17279 0
17286 17279 17280 0
12512 17284 17285 0
17285 17286 17287 0
17287 17286 17280 0
17282 17287 17280 0
17287 17282 17288 0
17288 17282 17283 0
12376 14972 17284 0
12376 17284 12377 0
12512 17285 17289 0
17285 17287 17289 0
17289 17287 17290 0
17289 17290 17291 0
17287 17288 17290 0
17290 17288 17283 0
17290 17283 17292 0
17291 17290 17292 0
12377 17284 12512 0
12512 17289 17291 0
11711 12511 15092 0
12512 17291 12511 0
12511 17291 12073 0
12073 17291 17293 0
12073 17293 17294 0
12072 15092 12073 0
15092 12511 12073 0
12073 17294 12074 0
11326 12074 9396 0
10497 17295 17296 0
9687 10497 17296 0
14876 10496 9688 0
9706 11837 17297 0
11837 11836 17298 0
14800 9257 9829 0
17298 11836 14800 0
17298 14800 9829 0
17298 9829 9256 0
17296 17298 9256 0
9688 9687 14916 0
17295 9706 17297 0
17296 17295 17297 0
17297 11837 17298 0
14919 9687 17296 0
17296 17297 17298 0
14919 17296 17299 0
17299 17296 9256 0
17299 17300 17301 0
14919 17299 17301 0
14919 17301 14916 0
17302 17303 11947 0
17304 17302 14889 0
17302 11947 11946 0
17302 11946 14889 0
17305 14697 11333 0
17306 17307 11333 0
11947 17303 17307 0
11947 17307 17306 0
17306 11948 11947 0
11948 17306 14398 0
14398 17306 11335 0
11335 17306 11333 0
14884 11946 11948 0
14884 11948 14777 0
11948 14398 14689 0
14689 14398 14397 0
14689 14063 11948 0
12850 14916 17308 0
17308 17301 17300 0
17308 17300 17309 0
17308 14916 17301 0
12850 17308 12815 0
12815 17308 17309 0
12815 17309 14882 0
17299 9256 17310 0
17311 9258 17312 0
17313 17310 17311 0
17310 9256 9258 0
17310 9258 17311 0
17313 17311 17304 0
17313 17304 14889 0
17309 17313 14883 0
17309 17300 17313 0
17300 17299 17310 0
17300 17310 17313 0
14883 17313 14889 0
14882 17309 17314 0
17314 17309 14883 0
17315 17314 14883 0
17315 14883 14886 0
14884 14886 14883 0
14886 14884 14777 0
17314 17315 11328 0
17315 14886 11328 0
11328 14886 14597 0
12816 14882 17314 0
14257 17314 11328 0
14257 11328 11330 0
12816 17314 14257 0
9396 12074 9394 0
9394 12074 17294 0
17292 17293 17291 0
17292 17316 17317 0
17318 17294 17293 0
17292 17318 17293 0
15097 17318 15034 0
17318 17292 17317 0
15034 17318 17317 0
15097 15034 15033 0
17316 17292 17283 0
17319 17283 17320 0
17321 17316 17319 0
17319 17316 17283 0
17321 17319 17322 0
17323 17322 17324 0
15034 17317 17323 0
17323 17317 17321 0
17321 17317 17316 0
15034 17323 17324 0
17323 17321 17322 0
15034 17324 11444 0
11445 11444 17324 0
17283 10813 17320 0
17320 10813 17325 0
17320 17325 17326 0
10813 9102 17327 0
9102 9540 17327 0
17327 17325 10813 0
17325 17327 17328 0
17328 17327 17329 0
9540 9101 9481 0
17330 17328 17329 0
17329 17327 9538 0
17329 9538 17331 0
10233 17329 17331 0
17327 9540 9538 0
17332 9538 9539 0
10233 17331 17332 0
17332 17331 9538 0
10121 17332 9539 0
10233 17332 10120 0
10120 17332 10121 0
17330 17329 10233 0
9552 10232 10120 0
11445 17324 17333 0
14991 11445 17333 0
17324 17322 17334 0
17334 17322 17326 0
17326 17322 17319 0
17326 17319 17320 0
17328 17326 17325 0
17334 17326 17328 0
12120 11833 15083 0
17333 17324 17335 0
17335 17324 17334 0
15094 14991 17333 0
17335 15094 17333 0
15083 15094 14995 0
14995 15094 17335 0
14995 17335 17330 0
17335 17334 17328 0
17330 17335 17328 0
15083 14995 14994 0
14975 14995 17330 0
14975 17330 10233 0
14975 10233 10232 0
9627 9626 17336 0
9626 11284 9409 0
17337 9626 9409 0
10145 9891 17338 0
10145 17338 17339 0
17338 17336 17339 0
17336 9626 17337 0
17339 17336 17337 0
17339 17337 8884 0
8852 10145 17339 0
8852 17339 8884 0
9128 9129 14709 0
8853 8852 8885 0
8885 8884 10175 0
8879 8885 10175 0
17337 9409 9408 0
8884 17337 9408 0
10175 9407 9127 0
8878 8877 9897 0
8853 8885 8879 0
9930 8853 8879 0
8880 8878 15053 0
15053 8878 9897 0
12014 8880 15053 0
9394 17294 17318 0
15097 15033 15084 0
9395 9394 15116 0
11879 9395 15116 0
9394 17318 15116 0
15116 17318 15097 0
11877 15105 11878 0
10659 10486 10660 0
10486 9627 17340 0
10660 10486 17340 0
17340 17341 17342 0
17343 10658 10660 0
17343 10660 17344 0
17344 10660 17340 0
17344 17340 17342 0
11878 15105 17151 0
17151 15105 17345 0
17345 15105 15106 0
17151 17345 17346 0
17345 15106 17347 0
17346 17345 17347 0
15106 12319 10658 0
17346 17347 17348 0
17347 15106 17348 0
15106 10658 17343 0
17348 15106 17343 0
17348 17343 17344 0
17349 17348 17344 0
17151 17346 9514 0
9513 17151 9514 0
17346 17348 17350 0
17350 17348 17349 0
17350 17349 17351 0
9515 9514 17352 0
17143 9515 17352 0
17143 17352 17144 0
9514 17346 17350 0
17352 9514 17350 0
17352 17350 17351 0
17352 17351 17353 0
17144 17352 17353 0
17144 17353 12154 0
17336 17338 17354 0
9891 10145 8851 0
17354 17338 9891 0
17354 9891 17355 0
17355 9891 9890 0
17355 9890 17356 0
17356 9890 10168 0
15093 9930 12015 0
15043 15093 12015 0
14490 12015 12014 0
14490 12014 10429 0
10909 8854 15093 0
15093 8854 9930 0
15040 15042 14999 0
15042 14490 14805 0
14999 15042 14805 0
14999 14805 17357 0
10167 15040 14999 0
12154 17353 17358 0
17358 17353 17359 0
17358 17359 17360 0
17358 17360 17361 0
17359 17351 17362 0
17353 17351 17359 0
17361 17360 15119 0
17361 15119 8929 0
17349 17344 17342 0
17363 17349 17342 0
17363 17342 17364 0
17363 17364 17365 0
17341 17340 17354 0
17340 9627 17336 0
17354 17340 17336 0
17364 17341 17354 0
17365 17364 17355 0
17364 17342 17341 0
17355 17364 17354 0
17365 17355 17356 0
15111 8929 15119 0
17359 17362 17365 0
17360 17359 17365 0
17351 17349 17363 0
17362 17351 17363 0
17365 17362 17363 0
10168 15119 17360 0
17356 10168 17360 0
17356 17360 17365 0
15119 10168 15032 0
15000 14999 17357 0
12154 17358 12155 0
12155 17358 15122 0
17361 8929 8928 0
17358 17361 15122 0
8928 15122 17361 0
15122 8928 17156 0
11839 15122 17156 0
17156 8928 15108 0
11703 14999 11704 0
11704 15000 9009 0
10460 11704 9009 0
15108 8928 8927 0
15108 8927 15098 0
17366 15939 15926 0
17366 15926 16720 0
17366 16720 17367 0
15939 17366 17261 0
17261 17366 17262 0
14910 11379 10520 0
14910 10520 17368 0
17262 17366 10374 0
10374 17366 17369 0
17367 16720 14910 0
16720 11377 14910 0
17369 17366 17367 0
17367 14910 17368 0
17367 17368 17369 0
17262 10374 17264 0
10373 10375 17266 0
17264 10374 10373 0
17266 17370 14328 0
14328 17370 10627 0
17371 16713 16711 0
16713 16710 16711 0
17371 16711 17372 0
17371 17372 17373 0
17372 16707 16684 0
17372 16684 16685 0
17374 17372 16685 0
17373 17372 17374 0
17375 17376 17373 0
17375 17373 17374 0
17372 16711 16707 0
17376 17375 17377 0
17378 17376 17377 0
17379 17376 17378 0
17378 17377 17380 0
14710 17378 17380 0
14710 17380 10102 0
10102 17380 10103 0
10104 14710 10102 0
10628 17266 10375 0
17370 17266 10628 0
10627 17370 10628 0
10374 17369 17381 0
17381 17369 17371 0
17369 17368 17371 0
17368 10520 10521 0
17371 17368 10521 0
17371 10521 16713 0
17381 17371 17373 0
10628 10375 17379 0
10375 10374 17381 0
17379 10375 17381 0
17379 17381 17373 0
17379 10626 10628 0
14710 10626 17379 0
17379 17373 17376 0
14710 17379 17378 0
15055 9826 17272 0
17272 9168 17273 0
9826 9828 12508 0
9826 12508 9168 0
9168 12508 9169 0
17277 17275 17382 0
9168 17272 9826 0
17382 17275 9110 0
9477 17382 9110 0
9110 17275 17273 0
9111 9110 17273 0
9111 17273 9168 0
10710 9477 9110 0
17277 17382 10477 0
10477 17382 9726 0
10477 9726 9725 0
9726 17382 10661 0
10661 17382 9477 0
9727 9726 10661 0
9476 9478 14483 0
14776 9476 14483 0
16685 10604 17383 0
10602 14821 10603 0
10601 17383 10604 0
17383 10601 17384 0
14821 9199 9425 0
10603 14821 9425 0
17385 10601 10603 0
17385 10603 9425 0
11167 17385 9425 0
17386 14307 12748 0
17386 12748 17387 0
9788 14652 11568 0
17388 9789 11567 0
17388 11567 14448 0
14150 14652 15378 0
14150 15378 14492 0
10207 13792 17389 0
17387 12748 17390 0
17387 17390 17391 0
17390 12748 12108 0
17392 17391 17393 0
17393 17391 17390 0
17393 17394 9191 0
17392 17393 9191 0
12749 9787 12108 0
12109 9789 17388 0
17395 12108 12109 0
17395 12109 17388 0
9191 17394 9192 0
17393 17390 17394 0
17390 12108 17395 0
17394 17390 17395 0
17394 17395 17388 0
9193 9192 17394 0
14448 9193 17394 0
14448 17394 17388 0
14512 14044 10206 0
14512 9193 14232 0
10205 10207 14533 0
14533 10207 10237 0
10237 10207 17389 0
14533 10237 9647 0
17392 9191 9190 0
17396 17391 17392 0
17392 9190 10307 0
17396 17392 14793 0
17392 10307 14793 0
14512 10206 10307 0
14533 10307 10205 0
14793 10307 14353 0
10976 14793 14353 0
9190 14512 10307 0
14353 10307 14533 0
13238 17397 17398 0
17399 13238 17398 0
17399 17398 17400 0
14979 10159 14462 0
8954 8910 17401 0
17401 8910 10158 0
17401 10158 14979 0
8954 17401 17402 0
14819 17401 14979 0
17402 17401 14819 0
17402 14819 14801 0
17403 10103 17380 0
17403 17380 17404 0
10103 17403 10744 0
10104 10103 10744 0
14676 10744 14807 0
17377 17375 17384 0
17377 17384 17380 0
17380 17384 17404 0
17383 17374 16685 0
17384 17375 17383 0
17375 17374 17383 0
17384 10601 17404 0
17404 10601 17385 0
17385 14807 10744 0
17404 17385 10744 0
17404 10744 17403 0
14807 17385 11167 0
14676 14317 14306 0
14317 14807 11167 0
14979 14462 14819 0
14819 14462 10484 0
14501 14703 14810 0
14810 14703 14747 0
17405 14810 14747 0
14747 14306 14307 0
17387 17405 14747 0
17386 17387 14747 0
17386 14747 14307 0
17405 17391 17396 0
17405 17387 17391 0
17406 14810 17405 0
17396 17406 17405 0
17406 17396 14793 0
11001 17406 14793 0
14881 14696 11580 0
11001 10611 14810 0
11001 14810 17406 0
17407 14881 17399 0
11580 11579 13238 0
17399 14881 11580 0
17399 11580 13238 0
17408 17400 17409 0
10497 8909 8908 0
10497 8908 17295 0
17295 8908 8955 0
17295 8955 9706 0
17402 14801 9705 0
8955 8954 17402 0
9705 14801 14789 0
9705 8955 17402 0
9706 11835 11837 0
14800 11873 17410 0
9257 14800 17410 0
17411 14881 17407 0
17411 17407 17412 0
17411 11874 14881 0
17399 17400 17413 0
17407 17399 17413 0
17408 17409 17414 0
17413 17400 17408 0
17414 17415 17416 0
17417 17412 17413 0
17412 17407 17413 0
17408 17417 17413 0
17417 17408 17414 0
17418 17417 17414 0
17418 17414 17416 0
17418 17416 17419 0
17420 17421 17418 0
17420 17418 17419 0
9257 17410 17422 0
9258 9257 17422 0
9258 17422 17312 0
17410 11873 17423 0
17410 17423 17424 0
17425 17312 17422 0
17422 17410 17424 0
17423 11875 17411 0
17411 11875 11874 0
17423 17411 17412 0
17425 17422 17424 0
17426 17425 17424 0
17423 11873 11875 0
17424 17423 17412 0
17426 17424 17412 0
17426 17412 17417 0
17425 17426 17427 0
17428 17427 17421 0
17421 17417 17418 0
17427 17426 17417 0
17421 17427 17417 0
17429 17421 17420 0
17311 17312 17304 0
17312 17425 17427 0
17312 17427 17428 0
17302 17304 17428 0
17428 17304 17312 0
17302 17428 17430 0
17302 17430 17303 0
17428 17421 17429 0
17429 17420 17431 0
17420 17419 17431 0
17430 17429 17432 0
17429 17431 17432 0
17432 17431 14698 0
17307 17303 17305 0
17305 17303 17430 0
17430 17428 17429 0
17305 17430 17432 0
17307 17305 11333 0
17432 14698 14697 0
14697 17305 17432 0
16817 16816 16945 0
16945 16816 16814 0
16945 16814 17433 0
17433 16814 14987 0
17433 14987 14922 0
14922 14987 14911 0
16814 12513 14987 0
12513 11336 11151 0
14987 12513 11151 0
14799 14911 11150 0
11150 14987 11151 0
11612 12455 12577 0
12049 11612 12577 0
12049 12577 12575 0
12455 14820 12577 0
14445 14371 17434 0
17434 14371 12830 0
17434 12830 11964 0
17434 11964 12451 0
12450 17434 12451 0
12082 11086 17435 0
14741 11086 11088 0
11086 14741 14742 0
17435 11086 14742 0
17435 14742 17436 0
17436 14742 17434 0
14741 11088 14443 0
12450 17436 17434 0
17434 14742 14445 0
12082 17435 17437 0
17437 17435 17436 0
17438 17436 12450 0
17438 12450 14336 0
12449 11977 12450 0
12559 14336 13194 0
11018 13194 14336 0
11018 14336 11977 0
14336 12450 11977 0
11625 13194 11018 0
10313 10406 11055 0
14820 14775 12576 0
14612 11256 14505 0
14855 17439 9697 0
14855 9697 11965 0
11965 9697 9696 0
17439 14570 14156 0
17439 14156 17440 0
9697 17439 17440 0
9698 9697 17440 0
14855 14570 17439 0
10850 12960 10327 0
10605 10606 12735 0
11525 11526 12053 0
12422 9698 17440 0
12422 17440 11436 0
17440 14156 9898 0
11436 17440 9898 0
12422 11436 11517 0
12053 11526 12736 0
11526 10483 12736 0
12736 10483 10605 0
11799 11524 11525 0
11055 10406 11056 0
12069 11056 10406 0
11338 11054 11056 0
12449 12451 11006 0
12880 12451 11964 0
10989 12880 9699 0
9699 12880 11964 0
11800 11084 11524 0
10989 9699 12653 0
11030 11524 11153 0
13954 11338 13955 0
14134 11800 11799 0
14134 11799 14272 0
17441 13953 14271 0
14271 13953 13955 0
17441 14271 12054 0
10553 10552 17442 0
13953 17441 17443 0
17444 13953 17443 0
17442 13954 13953 0
10552 13954 17442 0
17444 17442 13953 0
15178 10553 17442 0
15178 17442 17444 0
16944 16817 16945 0
17433 14922 17445 0
16946 17433 17445 0
16945 17433 16946 0
16946 17445 16949 0
16949 17445 14905 0
17445 14922 14905 0
16949 14905 14803 0
14803 14905 14804 0
17437 17436 17438 0
17446 17438 14336 0
12559 13194 10666 0
17446 14336 17447 0
17447 14336 12428 0
17447 12428 14079 0
11901 14454 14737 0
14653 12082 17448 0
17449 17448 17437 0
17448 12082 17437 0
17449 17437 17446 0
17446 17437 17438 0
14737 17449 17446 0
17446 11519 14737 0
17449 14737 17448 0
14737 14653 17448 0
17447 11519 17446 0
11901 14737 13707 0
14737 11519 17450 0
13707 14737 17450 0
14079 12604 17447 0
11519 17447 11520 0
11520 17447 14148 0
13707 17450 11518 0
11518 17450 11519 0
11518 11520 17451 0
11518 17451 16964 0
11811 11688 10554 0
11811 10554 10553 0
11811 10553 11503 0
15177 10553 15178 0
10553 15177 15176 0
11503 10553 17452 0
17452 10553 15176 0
11503 17452 11501 0
17452 15176 11501 0
14148 17451 11520 0
17453 14148 12965 0
14148 17447 12604 0
12965 12604 11504 0
11504 12604 9589 0
12604 14079 12429 0
11502 11090 10170 0
11995 11502 11501 0
16964 17451 16971 0
16971 17451 14148 0
16971 14148 17453 0
12965 11504 11925 0
11040 11925 11504 0
16971 17453 16973 0
16973 17453 12965 0
16977 16973 12965 0
16977 12965 11926 0
12247 11995 11501 0
12247 11501 15173 0
11595 11926 11040 0
16980 11926 11595 0
11595 11040 12822 0
16977 11926 16980 0
16980 11595 9860 0
10368 11596 10575 0
15178 17444 15160 0
17454 15160 17444 0
17454 17444 10915 0
17444 17443 17455 0
17455 17443 17456 0
10914 17454 10915 0
17455 11822 17444 0
10915 17444 11822 0
17457 12411 17455 0
17455 12411 11822 0
12997 17454 10914 0
17441 12054 17443 0
12054 12053 12817 0
17458 12817 12038 0
12817 17443 12054 0
17458 17443 12817 0
12817 12736 12039 0
12817 12039 12038 0
14504 14442 14554 0
10327 12960 14394 0
10366 10327 14394 0
14556 14393 11155 0
12038 12040 14435 0
11155 12040 14556 0
14305 17458 12038 0
14305 12038 14435 0
17458 14305 17080 0
17458 17080 17459 0
17080 14305 12413 0
9652 9651 17460 0
17460 12411 17457 0
17460 9651 12411 0
17460 17457 17461 0
17462 9652 17460 0
13117 9652 17462 0
17461 17457 17456 0
17457 17455 17456 0
17443 17458 17456 0
17461 17456 17458 0
17462 17460 17461 0
17459 17462 17461 0
17458 17459 17461 0
17080 17463 17459 0
13120 9652 12087 0
13117 17462 17463 0
17462 17459 17463 0
17463 17080 17078 0
17076 17078 17077 0
17076 17463 17078 0
13509 13117 17463 0
17464 13509 17463 0
17464 17463 17076 0
17464 17076 11035 0
13118 16393 13781 0
13118 13509 16393 0
16393 13509 17464 0
16393 17464 11035 0
13781 16393 11034 0
15160 17454 17465 0
12997 9650 13120 0
12997 13120 17466 0
17465 17454 12997 0
17465 12997 17466 0
15160 17465 15163 0
13117 12088 12087 0
17466 13120 17467 0
17467 13120 12087 0
13118 13782 12088 0
17467 12087 13074 0
15163 17465 15165 0
17466 15165 17465 0
17468 15165 17466 0
17467 17468 17466 0
17468 17467 13074 0
13074 17067 17468 0
15163 15165 15164 0
17067 15154 17468 0
17468 15154 15165 0
11583 11498 11497 0
11497 11500 17469 0
12718 17470 13145 0
17469 17470 17471 0
17471 17470 12718 0
15197 11497 17469 0
17469 17471 15197 0
17472 17471 12718 0
17472 12718 12385 0
15197 17471 17472 0
15197 17472 12095 0
12095 17472 12385 0
12567 11845 11699 0
12956 9010 14830 0
15000 14830 9009 0
14805 14830 17357 0
17357 14830 15000 0
12784 12550 14718 0
14718 12550 12547 0
11020 9010 12956 0
14805 12956 14830 0
14701 12956 14805 0
