#!ascii version of surfaces/CC00169XX13/label/lh+rh.surf+labels-reduced.vtk
13901 27794
7.394460  -43.229401  23.770800  0
8.359980  -42.465000  22.819300  0
1.592510  4.951030  11.549800  0
3.115420  -40.949001  5.010290  0
2.008980  -1.099480  31.018700  0
25.585699  6.564120  14.425400  0
27.776400  5.234610  12.811500  0
26.539700  6.964930  14.279400  0
1.448330  4.651010  1.424650  0
2.714420  4.280270  1.311160  0
2.211080  3.000120  1.015280  0
7.191770  -35.158199  1.392470  0
7.283380  -32.539700  1.503620  0
7.897440  -33.357300  0.659611  0
0.230344  -1.916230  5.145260  0
16.837299  -26.014601  41.810398  0
16.191500  -25.980801  43.080200  0
15.893700  -26.398899  41.885101  0
31.112301  -7.914190  0.899181  0
22.760401  4.517800  7.202000  0
29.159201  -10.489400  0.310087  0
16.662100  -44.408699  21.843901  0
17.243200  -25.762501  -4.003460  0
3.925540  -34.684700  9.649580  0
2.938410  -41.163399  20.517700  0
23.283899  8.800280  7.514400  0
7.885690  -43.013302  23.987600  0
16.145300  -32.396801  -0.600537  0
5.512590  -42.682800  22.887100  0
22.837900  -29.337700  38.361401  0
0.439774  -23.993500  31.641199  0
13.460100  -31.710899  -2.161430  0
24.114700  -37.450401  16.473700  0
24.195900  -35.699001  18.073099  0
25.224001  -36.279598  18.614401  0
3.095400  -9.832200  37.411800  0
3.104700  -10.942100  -2.884860  0
16.488600  -18.780899  43.403801  0
6.718030  -32.203098  2.669920  0
19.346600  -2.611820  37.001301  0
17.810301  -3.961680  35.821899  0
29.968901  -31.883801  28.231199  0
24.945900  -26.981600  33.743301  0
20.667999  6.667630  2.831160  0
13.650700  -26.798700  39.216599  0
6.340400  -25.729500  38.932701  0
3.442700  -6.801190  34.049099  0
3.211140  4.265430  24.664700  0
21.051901  2.122300  32.165901  0
3.095630  -10.365700  38.783001  0
25.375999  9.901440  7.144920  0
3.437360  -30.833000  29.792101  0
13.221900  0.087248  37.514000  0
21.802299  8.684020  19.240801  0
2.243460  4.470440  23.274900  0
2.336020  -47.058201  11.640400  0
3.679420  -48.028900  11.144100  0
25.661400  -29.684500  35.169899  0
24.590200  -28.834499  34.523300  0
8.867470  -17.807100  -5.918680  0
22.330000  2.047410  31.268400  0
1.873800  11.168300  7.077190  0
18.989000  7.427830  31.958099  0
19.502001  8.811000  29.806700  0
3.017500  -37.685398  13.915900  0
9.840410  -11.875600  42.976799  0
10.430600  -8.295130  41.631901  0
10.260500  -7.865840  41.282200  0
1.021680  6.280500  11.980600  0
15.507500  -44.409500  32.387402  0
13.946100  -42.105400  32.038700  0
23.141199  -32.240700  34.455002  0
22.777500  -31.354799  34.820702  0
19.804600  -18.490999  42.073898  0
23.114799  1.573610  8.900100  0
0.238225  -13.700600  34.319698  0
0.541027  -14.210100  33.195900  0
1.041390  7.583130  21.777800  0
2.569950  8.435460  19.922800  0
3.809320  -9.814730  39.013699  0
27.301600  7.649450  13.955800  0
19.926001  -9.254560  -5.782040  0
15.803300  -41.042999  36.197399  0
14.638600  -42.658699  35.477100  0
14.278300  -41.733398  35.074699  0
14.499900  -40.776798  35.312599  0
8.943010  -36.180500  41.027100  0
8.503950  -36.271400  41.060699  0
7.015940  -37.494598  39.161201  0
13.760000  -40.763802  34.399300  0
12.614600  -20.771799  43.870499  0
9.349570  -34.731998  -1.145820  0
11.457600  -31.727301  -0.789972  0
8.148730  -32.493900  0.515860  0
16.305799  -44.611900  24.677799  0
17.660601  -18.736700  42.212002  0
16.848499  -2.704680  37.929901  0
21.234900  8.687410  20.895000  0
21.891399  -17.924101  41.551998  0
28.996500  0.758742  14.271500  0
17.805599  -3.867860  37.910702  0
1.166200  -36.173302  22.541100  0
1.156450  0.482899  19.077400  0
5.269130  9.073210  18.752600  0
19.478100  -25.860300  38.716999  0
5.843430  1.749290  -6.904100  0
2.984850  -18.732201  38.026199  0
14.896400  -3.318090  -3.927210  0
23.819799  2.901970  26.537300  0
16.266001  -45.546799  22.553301  0
15.934400  -45.709599  20.075199  0
16.789101  -43.927399  22.917500  0
16.747299  -45.137199  21.199301  0
20.614500  -27.141500  38.099701  0
21.483700  -27.321100  39.198200  0
21.202700  -25.912901  38.761799  0
20.999399  -26.219801  39.712299  0
21.461599  -32.178501  33.750599  0
2.610090  -39.008499  13.877000  0
2.143480  -41.013500  20.631100  0
23.747000  -38.820400  15.670900  0
10.871700  -21.398199  -5.808430  0
10.145100  -22.145700  -7.792860  0
12.667100  2.008580  35.293499  0
15.100800  -40.946400  28.712900  0
12.779200  -31.556801  -1.438170  0
13.496300  -32.884102  -1.935110  0
9.245560  -40.284302  1.977730  0
20.410700  -21.820000  -8.104850  0
20.417500  -20.656500  -6.341770  0
10.556300  -7.170990  42.097198  0
11.085000  -5.437280  41.945301  0
20.970699  3.100920  2.425470  0
21.273399  -18.816700  42.875999  0
19.254400  -18.923401  42.418598  0
19.702400  -19.163401  43.313099  0
5.475530  -26.638300  37.260601  0
5.124530  -30.176800  36.695702  0
14.698500  -27.550699  -5.295660  0
12.520300  -30.641899  -4.414250  0
12.913600  -30.089399  -3.677040  0
0.702163  -4.176680  4.431390  0
30.006800  -35.150398  16.698601  0
2.515230  5.414620  23.656099  0
1.407870  5.880990  24.315701  0
21.399099  -18.548201  -8.155190  0
20.850401  -19.492500  -7.187370  0
5.179930  -40.137199  6.638370  0
3.868870  -40.153400  7.285100  0
2.124020  -33.621101  27.015100  0
1.652200  -32.437099  27.900499  0
4.759610  -36.181099  4.488470  0
5.838430  -1.611320  -5.719720  0
2.955650  -40.608601  8.059280  0
3.332960  -39.953899  8.889450  0
20.849600  -25.714899  38.034199  0
17.996500  -25.748600  41.557701  0
2.295510  11.587300  12.916800  0
2.418790  11.712800  14.175800  0
2.042800  -23.315300  39.108299  0
2.522830  -25.081301  39.934502  0
3.117750  -20.847799  46.712700  0
18.526100  -7.568550  -6.176190  0
3.968200  -16.530001  41.854500  0
4.706340  -17.088600  40.146900  0
4.147510  -17.370600  39.664101  0
23.805799  -25.179701  38.980801  0
22.585600  -25.886499  40.227100  0
0.521554  -13.868000  38.003399  0
0.714234  -15.221400  38.508598  0
4.100830  -18.051300  38.275101  0
10.549600  -4.913890  40.734901  0
20.969500  1.350860  2.406600  0
16.244101  -40.128201  -0.274144  0
22.572001  -28.247000  38.792599  0
0.524807  0.322522  0.893864  0
0.407976  1.687050  -0.436367  0
12.780400  -21.006800  43.591801  0
0.060448  7.447960  5.930970  0
0.106029  8.631040  5.466190  0
0.409369  7.797560  3.905630  0
19.569300  -37.513100  35.317001  0
18.407801  -38.390099  36.438999  0
18.000601  -37.121101  34.822300  0
19.619801  -38.463200  36.538799  0
2.984650  -17.713400  38.631599  0
27.837400  6.892100  8.837670  0
27.313000  5.016790  8.362780  0
27.336100  7.623650  7.428910  0
3.685110  10.580700  17.958000  0
0.266313  5.386850  4.677400  0
0.523352  5.942070  6.361380  0
26.923401  -39.326401  -0.162447  0
26.985701  -38.091301  0.240628  0
26.101999  -38.627998  2.212210  0
21.577400  -30.811199  34.675098  0
13.573600  -1.948470  37.622799  0
1.693680  1.423060  25.820101  0
21.245001  5.691020  2.800760  0
12.085000  -3.091970  39.607899  0
25.634001  6.207320  4.926680  0
1.776750  1.880210  27.912701  0
0.744962  3.331630  27.793800  0
19.912600  -23.301800  -7.994180  0
0.916035  -41.883400  18.812201  0
16.120800  -3.273290  40.179199  0
2.754400  -9.125670  36.053101  0
3.016980  -27.151199  37.782799  0
4.543750  -26.381300  38.101501  0
0.845618  -4.574270  -1.921110  0
1.018950  -4.874140  1.227520  0
20.453699  -26.451599  37.864101  0
2.049530  -31.406799  30.946800  0
27.850000  5.068750  11.745800  0
20.983801  0.388086  1.081900  0
19.687401  8.222290  28.409901  0
20.158600  10.384900  26.196100  0
9.663730  -39.754799  0.271364  0
1.564670  11.575000  8.077000  0
25.213200  -37.666801  16.777800  0
18.690701  -24.000500  -8.117690  0
14.401200  -40.083302  1.032410  0
12.953400  -40.228500  1.118970  0
25.437599  -36.990299  18.062401  0
22.813200  -16.899799  41.686401  0
13.045400  -35.582901  -2.236390  0
23.774700  1.558840  29.084600  0
1.326880  -9.890620  33.758099  0
1.129240  -40.911999  14.952900  0
1.082060  -17.038900  37.102901  0
0.397389  -16.095301  36.267601  0
2.290140  -10.747400  37.966202  0
1.482120  -10.346200  35.271999  0
1.186090  -12.769800  39.253502  0
13.333800  -41.636902  32.327301  0
3.275780  -37.051601  8.766700  0
17.537901  -19.224400  43.599400  0
21.422400  -33.882301  33.731899  0
25.986401  9.190780  18.190399  0
26.638800  3.454620  8.105180  0
22.324200  -29.995300  37.073399  0
13.934300  -28.141600  42.906700  0
4.555100  -29.464199  36.500198  0
16.823200  -9.607560  41.660702  0
15.908600  -9.997920  42.881199  0
13.934800  -40.752800  29.799101  0
25.365499  -41.385300  6.495030  0
24.336901  -40.423901  6.640650  0
23.942400  -41.610600  7.780820  0
24.271000  7.336510  2.046180  0
22.746201  7.823330  1.691340  0
24.726500  -38.529202  16.954000  0
1.606020  -46.161598  12.463700  0
22.597099  -30.496099  35.307400  0
24.843300  -32.383999  34.511299  0
24.811001  -39.359402  19.989901  0
3.075490  -16.958200  41.313099  0
2.628570  -18.253401  39.205898  0
11.701900  -40.402802  1.373930  0
15.560300  -37.416599  0.529174  0
24.662500  -29.256800  35.376400  0
1.313380  -34.528999  27.124399  0
0.812725  9.018380  4.320360  0
24.474701  9.633030  18.867500  0
3.240840  -10.148200  40.184101  0
4.050600  -10.048500  38.994701  0
26.264099  7.168030  5.181490  0
25.468100  6.515570  6.113800  0
2.531970  6.225880  21.354401  0
12.988200  -2.140200  39.668800  0
10.551300  15.423900  23.184200  0
6.493760  -38.417099  1.602950  0
6.339480  -37.607601  1.650660  0
12.577300  6.047190  34.038101  0
2.976320  -42.099400  3.740940  0
13.038500  -40.773399  33.904301  0
13.152600  -41.728298  33.125401  0
12.918500  -40.926201  31.925900  0
2.519530  13.943700  13.570200  0
1.903130  -42.212502  21.786600  0
1.756650  -43.039700  23.039499  0
21.221399  -19.644600  -8.325160  0
1.721970  9.742230  17.192400  0
27.043400  -40.419899  20.581400  0
-0.426410  9.373730  -1.189870  0
-0.328100  10.902500  -1.850990  0
0.342274  9.642850  -4.122660  0
3.363330  -26.458700  38.740799  0
4.923720  -25.857599  37.666100  0
3.038040  -25.957199  37.891399  0
1.714980  -31.755199  29.835100  0
15.746900  -43.150600  28.825199  0
1.855920  -26.326401  37.307499  0
0.855594  -25.521601  36.583599  0
2.122690  -27.904200  36.291599  0
1.136460  -32.725399  31.385599  0
0.613471  -33.228199  30.174999  0
4.886310  -26.033800  39.027901  0
19.895800  -26.245199  40.971100  0
20.613600  -26.389999  39.808498  0
1.186150  -32.319599  28.571501  0
22.325399  -26.743900  38.755402  0
21.769501  -27.534500  40.314999  0
14.027900  -35.197201  -1.884160  0
0.985560  2.206960  29.727501  0
0.886905  0.437388  31.477100  0
4.422580  -17.065599  39.366501  0
24.389099  -38.025501  4.578970  0
23.577200  -39.514400  6.365030  0
4.670420  10.957800  9.308730  0
2.445610  11.432300  9.560780  0
24.233400  -40.832298  18.157900  0
22.501600  -41.250198  17.047300  0
1.389680  -3.900810  30.001101  0
25.516701  -38.404598  18.250601  0
14.808700  -46.888500  18.622801  0
3.556870  -40.371700  6.440300  0
5.695580  -40.000000  5.444270  0
4.295980  -40.289501  4.169560  0
24.838100  -39.782799  17.746700  0
1.247410  -31.048300  33.692200  0
1.821090  -31.965500  32.513100  0
15.466000  -37.853699  1.307680  0
27.068701  9.444840  15.147500  0
21.048300  1.780780  0.559052  0
1.860830  7.273540  1.976030  0
0.729361  6.822030  1.650450  0
3.544420  -31.457701  38.715698  0
3.053750  -29.754601  37.403500  0
2.592350  -43.407001  22.635300  0
25.936199  -38.329300  15.686400  0
6.569150  -47.111198  12.491700  0
19.635799  -5.800380  -10.746300  0
3.908930  10.822900  10.187200  0
19.153099  -8.246520  -7.745510  0
0.541719  -36.062302  29.902599  0
15.064000  -37.993500  1.256320  0
15.530300  -47.039902  19.381701  0
7.748530  -39.551899  2.072370  0
6.424320  -39.179401  2.946170  0
14.258500  -19.383699  44.569199  0
24.029800  -40.010201  20.663300  0
12.999700  1.721750  38.008202  0
20.341600  10.879300  24.774599  0
0.913198  -35.040901  27.706900  0
14.369900  -0.325381  38.006199  0
3.594910  -16.726101  40.525902  0
2.991370  -47.093102  25.541901  0
1.698130  -47.801800  24.296600  0
2.970920  -48.628101  25.781601  0
1.503960  -31.781799  33.282200  0
14.826900  -1.939240  37.753601  0
2.588640  -10.229700  41.473000  0
1.366800  11.863600  16.751699  0
2.724490  -16.609301  40.019699  0
1.923980  -17.314600  38.219398  0
7.551890  -47.161800  11.083300  0
23.939899  -40.794300  17.306601  0
25.381300  -41.580101  17.750000  0
3.858870  -30.628401  37.145401  0
12.760100  -21.357100  45.069599  0
11.058000  -23.178900  45.600201  0
25.254499  -39.696499  4.448010  0
26.198700  -41.165001  3.889670  0
0.767095  -6.274440  37.850700  0
14.857300  -40.698299  1.729720  0
4.838850  -37.609699  4.164210  0
5.350890  -38.793800  4.151100  0
12.221000  3.239350  37.483101  0
15.094000  -42.707600  30.129101  0
10.307700  -24.306900  46.257900  0
9.208740  -25.264400  46.826199  0
9.935800  -25.480101  47.906200  0
6.071780  -39.388401  4.239750  0
2.661950  -30.258900  36.974701  0
2.726590  -29.185600  36.154499  0
1.862310  -29.871401  35.658501  0
0.765947  6.841700  23.083099  0
1.523700  -1.120980  32.729301  0
25.211500  -40.402901  17.219900  0
16.750601  -45.624401  24.217300  0
8.214660  -39.366299  0.711555  0
13.798700  -40.086300  1.873800  0
12.555800  3.060140  34.722500  0
1.730200  -27.831301  39.019798  0
14.425700  -37.026100  -1.479420  0
17.031799  -40.407001  -0.505064  0
0.393959  -33.814701  32.231701  0
0.319732  -34.608601  30.976200  0
1.942870  -38.595501  12.947400  0
2.072670  -40.116299  9.742070  0
16.553699  -45.936401  22.678699  0
19.536501  5.995400  30.003099  0
20.005899  5.973170  30.992100  0
18.907301  9.696740  24.004801  0
20.833500  -20.797001  -9.091030  0
16.164301  -42.868801  27.703800  0
16.784000  -45.079899  26.634001  0
16.774900  -44.648701  28.986000  0
1.180670  5.172880  6.819510  0
2.627650  -26.404301  41.227901  0
21.167200  -20.606899  -8.316250  0
28.122801  7.550920  12.494900  0
20.302099  -36.143398  34.133400  0
20.899099  -36.826599  35.153999  0
10.008400  -37.938801  -1.310290  0
10.104300  -36.130600  -1.768780  0
11.802000  -36.074699  -2.157560  0
2.940630  10.877600  17.059700  0
20.464600  10.342700  23.263100  0
22.055401  10.769300  22.661400  0
6.821110  -47.476700  13.105500  0
1.380920  -30.729000  35.004200  0
0.708977  -33.115700  32.799500  0
0.469512  -32.687801  34.485802  0
13.210500  -40.827599  32.714901  0
0.672209  0.263032  24.560699  0
16.730900  -41.171001  -1.160380  0
15.753300  -40.650002  -2.534880  0
19.195200  6.794010  31.594601  0
25.084299  -41.067699  23.061701  0
5.119540  -31.030300  37.193100  0
19.104200  13.019000  24.669800  0
23.475700  4.687560  3.771130  0
18.465401  -11.178900  41.819599  0
16.973499  -10.763300  42.721699  0
20.607500  -22.056700  -7.666220  0
2.328320  -38.685902  10.364100  0
0.555287  7.107460  25.596500  0
0.192778  7.981800  23.355900  0
0.766821  12.616900  7.418220  0
2.565600  7.958250  19.709000  0
12.270800  -1.543420  40.928398  0
11.220800  -3.159270  40.999699  0
14.287300  -39.563099  0.730383  0
9.811970  -30.074900  43.702702  0
24.646099  -40.963001  22.576599  0
24.475800  -40.280300  19.925100  0
21.086599  -17.353701  -10.526000  0
14.781200  -41.740700  34.896599  0
0.648655  4.531810  5.478760  0
0.967969  -38.697300  21.764400  0
1.303410  -38.815102  20.205799  0
21.733101  -42.852501  26.986300  0
23.856100  -32.906399  -3.612000  0
24.714001  -33.631100  -4.251410  0
23.489000  -34.491901  -4.651680  0
24.146700  -42.791801  18.503000  0
0.730186  1.730230  0.990198  0
0.681384  1.595430  0.475352  0
1.237970  -29.191799  34.667301  0
28.378401  8.042550  10.477500  0
0.490726  2.708700  1.763880  0
25.648199  -37.899899  2.339310  0
8.114570  -44.932301  25.812099  0
15.047600  -27.304800  44.175098  0
13.939400  -28.023500  46.227299  0
14.129600  -28.219400  44.528099  0
1.719160  5.260570  21.361799  0
0.941614  3.004890  20.802200  0
1.238610  3.030950  23.065901  0
14.149800  -39.821701  -0.201693  0
2.182880  5.303940  22.088200  0
25.394100  -41.273201  22.262199  0
1.002420  -30.040001  34.112400  0
24.527300  -40.301998  6.921090  0
23.726200  -40.079102  7.230790  0
1.646690  -24.393299  41.844002  0
13.349400  -1.117120  39.571999  0
12.692100  4.915490  35.478199  0
2.063700  6.817050  20.235901  0
3.876310  -45.076099  25.216101  0
6.126630  -48.098701  11.516200  0
2.388540  -17.412701  41.678600  0
23.868900  9.923500  19.808599  0
22.733500  9.662480  21.293600  0
4.581300  -31.983500  39.239700  0
2.130120  10.813100  7.935100  0
24.714199  6.485760  2.831260  0
2.110970  -24.873800  37.768299  0
27.126400  -41.023300  16.621099  0
1.507010  -41.114700  9.231360  0
22.137899  5.060220  0.183895  0
1.516500  -20.962000  40.662399  0
8.775980  -30.199600  43.079700  0
1.190230  -13.465700  41.977402  0
1.435690  -12.219600  41.241798  0
21.701799  -34.439201  34.618198  0
11.029800  -4.319580  40.593601  0
2.148640  -43.501099  12.216700  0
6.727400  -48.403599  10.909900  0
13.808800  -19.691000  45.077999  0
4.251960  -32.328800  39.050701  0
10.126300  -11.363300  43.653301  0
10.506600  -8.368500  42.414799  0
30.557600  -16.922800  -8.379440  0
10.756400  -38.998402  -0.840253  0
11.077900  -39.660900  0.291536  0
13.843800  -38.339401  -1.164170  0
4.930400  -40.034901  4.800840  0
11.329400  6.654890  33.846802  0
2.077840  -11.277600  39.653198  0
0.669906  -1.192370  -3.317470  0
3.268150  -15.924000  43.471699  0
2.784510  -15.394800  43.666901  0
16.973000  -36.878101  35.667900  0
6.155680  -45.308899  25.548500  0
19.888000  6.425550  29.650700  0
1.199960  -2.359020  35.935600  0
1.570640  -1.550380  33.793201  0
9.605440  -11.068700  43.873699  0
25.002100  -41.167500  19.659201  0
25.982500  -41.967800  21.836201  0
24.669800  -41.748798  18.685200  0
1.316480  -42.989799  11.949700  0
27.948500  -39.250702  14.694100  0
28.584101  -38.655701  15.913500  0
1.264080  -29.315599  39.523899  0
0.778452  -30.290001  41.766602  0
0.816377  -28.492599  41.796299  0
10.394600  -5.697180  41.676300  0
5.929830  -37.668598  38.316002  0
22.515100  9.851120  21.073299  0
15.931200  -47.820202  21.460400  0
8.561940  -36.948700  42.082500  0
1.947360  -18.855900  40.841801  0
1.649030  13.636200  11.989300  0
24.897900  -38.703400  5.016760  0
5.907310  -55.414398  6.204580  0
10.161800  -11.396900  44.161701  0
8.037870  -50.199902  9.653970  0
12.526800  5.034070  34.634201  0
3.466500  -37.657700  7.985580  0
24.676001  -40.422798  19.093000  0
22.909800  10.035800  22.215099  0
16.408501  -48.262100  22.779301  0
4.751480  -40.148800  1.787700  0
5.211170  -39.488098  2.969810  0
17.710800  -41.003101  -0.933849  0
20.286400  -36.534401  -4.234070  0
21.125700  -35.237202  -4.233560  0
22.041599  -34.532501  -3.930430  0
2.182770  -28.515600  37.914398  0
14.687400  -38.291901  -0.477246  0
9.414660  -45.192001  26.375601  0
26.236500  7.906270  3.215630  0
0.391433  -33.617401  37.521599  0
1.079080  -31.254700  35.925900  0
9.056920  8.877260  33.197701  0
2.492570  -45.015598  24.193501  0
1.345800  5.943120  19.598101  0
21.670700  5.861870  -1.494760  0
20.601900  4.211230  -1.992530  0
0.172072  2.136910  -1.693770  0
16.551201  -47.527000  24.259600  0
23.567301  7.534220  0.105806  0
25.932199  -33.518200  -3.793360  0
25.437901  -32.554901  -3.768930  0
7.175980  -47.537300  13.053600  0
7.522170  -48.876202  12.688600  0
6.035330  -39.969799  0.982598  0
19.743500  10.491000  28.252199  0
12.308300  -43.483002  33.291801  0
5.540780  -0.372278  -7.288960  0
5.450650  -46.099701  3.291480  0
1.207650  -36.966801  24.739599  0
0.904035  -40.244900  26.315201  0
22.480600  11.754700  22.762600  0
20.649000  13.080600  24.318399  0
1.774190  -29.965599  38.699799  0
9.750250  -9.381250  43.691299  0
17.325800  -38.084599  36.286900  0
24.372299  -42.416401  24.896799  0
18.723301  -50.922901  14.910900  0
23.236000  10.560200  21.124201  0
23.387400  -42.902901  26.133101  0
23.696100  8.502310  0.818074  0
16.704100  9.526670  -2.794240  0
16.001699  10.356200  -1.486780  0
17.398001  9.548580  -2.938260  0
1.513700  12.170800  9.391730  0
1.118620  12.451400  8.339210  0
15.185200  8.854430  -2.226910  0
7.838410  -30.040501  43.049000  0
26.461100  -37.982700  2.406120  0
15.894400  -39.202099  -3.290450  0
18.145399  -38.866100  -3.494060  0
18.167299  -39.764599  -2.223600  0
3.409280  -43.078800  1.292200  0
4.072000  -41.984402  0.480973  0
4.586700  1.432870  -8.164030  0
2.868400  -31.515400  38.386501  0
23.285801  -41.369801  8.337620  0
25.139000  -42.087700  8.063710  0
22.345301  -29.364500  39.134899  0
11.729100  -39.686100  -2.774700  0
9.376010  -40.239601  -2.897360  0
9.466840  -39.648201  -2.124290  0
11.903800  -39.532299  -0.929175  0
24.272800  -42.946899  9.039460  0
2.081760  -39.005199  30.754900  0
1.065160  -39.198002  30.216900  0
1.458950  -39.839401  31.724899  0
13.475200  -42.886299  33.458302  0
1.615110  -7.756430  41.848499  0
13.765900  13.562900  28.940001  0
13.109600  13.140500  27.948200  0
0.991459  5.827900  14.428400  0
14.968700  -47.497700  19.268299  0
17.318199  -43.202099  -5.307990  0
0.250140  5.663100  3.439170  0
2.858680  -16.580200  43.325100  0
1.914240  -27.071899  40.233200  0
15.984400  -46.540798  22.147699  0
2.429750  -41.092899  7.656600  0
1.552440  -0.348497  35.503399  0
1.260860  -0.898748  37.146599  0
0.291028  4.417750  29.263000  0
17.084999  -47.187199  25.072901  0
17.200001  -47.843700  24.955500  0
25.742399  -42.749500  6.867000  0
11.296900  7.261650  34.755402  0
10.001300  8.346920  34.758301  0
7.391850  -39.852501  1.161190  0
1.544070  7.338250  2.510410  0
0.935231  -40.543598  23.079700  0
8.686440  -39.733700  -0.577909  0
29.977699  -14.913500  -8.672500  0
1.706780  -24.498100  44.180199  0
1.693810  -41.121700  20.005501  0
15.042100  -38.957600  -2.774220  0
21.396799  10.771400  23.583900  0
1.713880  -41.843201  14.223100  0
9.663490  -39.532799  -1.154900  0
25.617100  -40.218700  6.527120  0
15.682900  -27.322001  43.481602  0
23.432800  8.584580  1.605550  0
1.248820  -22.207701  42.933998  0
17.321899  -24.695801  43.966301  0
16.359501  -24.726500  44.540298  0
9.601660  -35.477699  42.246700  0
10.508400  -2.831770  42.273102  0
1.260800  -22.823000  41.462299  0
25.816700  8.351090  2.278680  0
9.826270  9.571140  33.136200  0
27.053499  -37.794498  1.065030  0
0.545453  7.177380  33.603699  0
0.262919  7.049180  30.203800  0
15.095500  -26.698200  45.562901  0
1.074880  -41.966702  8.886450  0
0.830532  -42.506699  10.019700  0
0.762985  1.489830  35.648300  0
12.051900  -29.356001  44.878201  0
18.406900  -40.440300  -0.829062  0
0.613159  0.959630  33.709801  0
15.725400  -50.039101  20.686300  0
1.612160  -26.921600  44.238400  0
13.220400  -37.255600  -1.881330  0
3.481360  -41.140400  3.724850  0
8.391720  -40.835201  -2.766160  0
8.343680  -40.221500  -1.942700  0
22.041901  14.663900  15.375700  0
0.595925  -44.146500  7.317360  0
2.645170  -15.946400  45.126999  0
2.474280  -15.091400  45.059299  0
12.709500  14.601900  28.388201  0
1.656930  -30.844801  36.779900  0
0.932746  9.961840  7.656150  0
0.818487  -42.554901  15.755700  0
18.262699  -47.510101  27.800301  0
17.474001  -45.746399  29.162201  0
17.606899  -46.853100  27.127501  0
-0.515253  18.636801  14.294000  0
-0.382554  17.728300  14.022000  0
12.477900  -39.377499  -1.754790  0
14.177700  -42.174198  33.776600  0
0.916294  -43.566399  10.779900  0
0.449263  -44.639000  8.722680  0
8.315260  -49.980999  10.868500  0
7.726580  -50.394001  11.178500  0
0.392576  4.141240  2.317410  0
-0.005787  3.092400  3.176900  0
0.565871  -38.972301  28.865801  0
0.553462  9.122530  7.813120  0
26.419100  -40.154800  2.456640  0
26.397800  -42.012402  1.767650  0
16.847401  -39.296398  37.405300  0
5.912810  -40.914799  -0.190551  0
-0.100183  4.340220  -0.936015  0
6.627790  -29.802000  43.897598  0
0.384251  8.506130  21.724600  0
0.095354  9.575850  21.822399  0
0.804160  5.987690  2.500190  0
26.081200  -42.623901  5.719090  0
11.845200  7.407670  34.233898  0
0.782308  2.579490  0.247289  0
15.844100  -24.316000  45.599499  0
7.488860  -40.194401  -0.548215  0
6.789300  -41.205200  -1.274410  0
10.784600  -30.147100  45.972000  0
22.564800  -47.396999  9.607580  0
22.235201  -47.355099  9.126610  0
16.775600  -40.790298  36.225800  0
16.379400  -42.764400  34.942200  0
15.119400  -28.819000  44.511600  0
13.587500  -29.084299  44.628101  0
14.753600  -30.066299  45.220402  0
14.648600  -28.137300  43.723099  0
12.509400  -39.595001  -2.497490  0
0.707131  -46.086201  7.642420  0
3.338910  -33.641201  40.210098  0
1.203860  10.664400  5.042920  0
3.573080  -38.915501  31.656799  0
3.198300  -39.078499  31.005600  0
2.127080  -32.133701  40.120300  0
3.840130  -39.743099  33.188999  0
3.851370  -40.452599  33.657902  0
2.399160  -40.650002  34.621300  0
9.552870  13.795200  31.399300  0
19.826099  12.096000  25.432100  0
1.220420  10.776200  11.427100  0
23.115999  13.562200  16.119400  0
0.515049  9.758720  11.387500  0
0.402681  9.025340  10.063400  0
6.975920  -55.977001  3.528670  0
13.012800  13.459000  29.388300  0
2.334060  -31.368799  39.159901  0
3.199800  -45.204700  24.682501  0
4.101110  -46.136799  25.717800  0
1.767290  -18.717800  42.750599  0
23.762600  -45.188499  10.784300  0
14.684200  -40.330399  -2.825520  0
14.541000  -40.034500  -1.595310  0
5.718590  -49.648701  9.820540  0
1.101890  -45.272099  6.461220  0
14.871400  -48.691502  18.280500  0
15.015000  -41.511902  -4.936510  0
14.425900  -42.515400  -5.488380  0
14.869900  -40.821400  -4.061380  0
2.217090  -39.887001  32.432499  0
0.766849  9.983720  3.648700  0
1.616610  10.143000  4.694240  0
8.506030  -24.950199  47.745201  0
22.076000  14.245800  15.884900  0
19.556200  15.041600  14.351300  0
10.710100  17.424400  22.810600  0
12.499500  19.817499  13.620100  0
12.231600  18.974600  16.854099  0
7.542210  -37.241798  40.519798  0
14.007400  -50.512299  18.470900  0
1.954600  -48.449100  1.651190  0
1.689210  -48.606800  3.244650  0
2.036030  -47.260101  3.092010  0
20.052900  17.537901  13.461200  0
19.203699  17.459400  13.129300  0
2.287870  -49.907398  8.954190  0
1.506300  -45.584702  23.671499  0
9.842410  -54.260601  5.781810  0
26.483400  -40.816101  -0.304320  0
25.931299  -43.659000  1.154430  0
7.385880  -49.484901  9.526070  0
1.913520  -19.984800  44.378502  0
2.557980  -20.308599  45.721802  0
10.466000  4.958480  -6.650860  0
6.673940  -31.042200  45.510799  0
7.853830  -31.254499  45.768398  0
9.162750  -36.841599  42.918499  0
23.538799  -46.916901  10.055500  0
24.200800  -46.163700  10.513400  0
6.181810  -38.300900  40.245602  0
4.792000  -38.583000  39.462299  0
1.067030  10.679800  12.638100  0
1.266950  10.924400  14.581000  0
0.218603  8.353730  1.994100  0
17.424299  -49.920502  24.526600  0
24.381001  -45.603401  9.809150  0
0.423100  12.358600  17.412500  0
-0.090476  12.982900  18.281500  0
20.252300  16.476801  14.735400  0
24.266001  -46.916100  9.584990  0
2.419930  -44.260502  5.722980  0
11.553400  8.253110  -5.987520  0
12.516700  10.739500  -5.819140  0
14.060900  7.620920  -4.544610  0
14.718200  8.373410  -3.684310  0
14.738100  10.723900  -4.242300  0
15.468500  10.073300  -2.723740  0
18.343500  17.125799  12.696300  0
18.950300  -30.896299  42.884300  0
21.059200  -29.510099  41.764999  0
21.170401  -28.449100  41.737999  0
11.436600  18.652599  20.652201  0
2.337530  14.958800  12.702000  0
5.181530  -37.624401  38.502800  0
15.029900  7.810210  -3.302200  0
14.802300  6.511070  -4.381450  0
1.642590  -41.553902  34.099499  0
2.794440  -40.825199  33.970901  0
2.058090  -33.714500  39.848701  0
0.342965  7.011410  -3.585180  0
0.848972  -0.353886  -5.956960  0
22.117201  15.842300  14.887700  0
7.882770  -49.133099  28.734900  0
5.756630  -43.490200  -1.531490  0
6.690790  -42.591801  -2.089580  0
3.883610  -44.124599  0.168533  0
4.188120  -42.907101  -0.215227  0
2.161600  -53.384701  17.270500  0
5.592410  -48.018299  27.482201  0
15.651700  -51.160999  20.865700  0
1.373690  -47.111000  15.115500  0
1.103680  -46.153900  14.523900  0
1.921420  14.116300  13.901000  0
0.000159  13.767900  16.836201  0
3.399520  -46.907799  0.582840  0
0.133385  13.788700  2.941290  0
0.804511  14.202000  3.547040  0
1.362650  -48.563099  15.532500  0
12.744200  -51.022400  18.329300  0
13.237900  6.511410  -5.153940  0
21.911100  15.855800  15.777700  0
15.402400  13.163200  -3.810590  0
15.585300  11.623400  -3.016620  0
11.585200  -45.755600  33.288300  0
12.063500  -45.632900  33.210400  0
6.759730  -43.656300  -2.315990  0
11.944300  20.158501  17.820299  0
12.157800  19.693600  16.549999  0
20.986099  -43.573700  -5.176110  0
18.754200  -45.045898  -5.532540  0
23.489700  -47.652100  9.331440  0
4.461040  -51.778301  5.505660  0
8.899610  -48.316799  28.547300  0
0.133741  9.529680  30.938999  0
1.503100  -47.847599  18.244600  0
22.708700  -43.438900  -4.498620  0
23.829000  -43.503601  -3.682920  0
22.728201  -45.205700  -4.662360  0
2.924070  -49.657299  10.658600  0
2.132560  -26.506599  45.796001  0
-0.001673  16.566999  3.129640  0
8.640980  -41.382999  -3.226220  0
6.983140  -45.400299  -2.692760  0
6.595470  -45.430000  -1.869050  0
18.284901  -42.363800  -3.792170  0
11.782900  17.668301  18.918100  0
12.174100  19.004400  18.142401  0
6.571860  -50.180801  5.032360  0
13.799900  -44.150600  34.447800  0
12.248500  -45.606201  33.835300  0
13.176400  -45.279202  34.649502  0
0.058681  17.292500  10.162700  0
12.100400  19.004601  20.617300  0
17.072100  -52.277401  18.770599  0
9.590150  8.716690  -7.139220  0
1.158190  -47.300800  13.226000  0
0.441075  10.987100  3.686900  0
20.904800  -42.117199  -5.035840  0
11.810400  19.147301  18.896601  0
4.941840  -45.378300  -0.330673  0
5.078020  -44.501099  -1.022770  0
15.018000  -43.526100  -5.688770  0
16.506800  -45.055801  -5.273390  0
16.208000  -42.403400  -5.257440  0
15.003900  -52.730301  19.868999  0
-0.137163  18.181700  9.316020  0
-0.324063  14.974400  17.566700  0
6.493030  -44.717499  -1.493700  0
24.796200  -41.917801  -2.688220  0
23.801399  -45.396000  -3.598140  0
9.729950  -54.527500  5.665770  0
-0.226550  13.056500  1.890770  0
-0.810074  15.774700  1.656560  0
5.362280  -51.591000  6.053050  0
1.345180  -47.566101  6.394780  0
1.557070  -47.118099  4.710330  0
19.882401  -51.780499  13.521000  0
21.321400  -51.258301  12.624600  0
-0.273355  16.738600  15.801500  0
-0.006846  14.941800  20.352900  0
-0.081251  17.181200  18.636400  0
7.982760  -44.921001  -3.677450  0
18.141100  19.580099  13.063000  0
12.710100  -46.037300  -5.993350  0
6.904140  -46.743000  -3.545050  0
8.663180  -47.551102  -4.806050  0
7.177460  -47.820900  -4.214950  0
21.332199  -44.872898  -5.293610  0
4.510050  -46.565498  0.252512  0
-0.054041  17.389601  12.424000  0
0.072874  12.671900  -3.299420  0
16.914900  -47.248901  -5.481600  0
5.665760  -51.748501  3.913830  0
4.964640  -52.670502  3.944550  0
4.767280  -47.037102  -0.956461  0
11.483000  -53.061401  -4.005640  0
3.323240  -52.485298  22.427799  0
2.528370  -53.300301  20.139601  0
2.696130  -52.824799  21.293100  0
3.159070  -51.588100  10.002300  0
12.047300  21.213100  16.821501  0
5.950990  -46.775600  -1.366780  0
14.906400  -47.907200  -5.806390  0
11.967600  -47.478100  -5.951410  0
3.419690  -48.030201  -0.807762  0
4.786350  -52.630798  5.392570  0
1.574690  -51.258900  13.763900  0
8.669020  -55.085701  5.853240  0
5.467000  -56.633499  7.014010  0
4.290720  -56.229500  6.736670  0
5.645930  -47.694099  -2.261320  0
8.341860  -55.889400  8.710720  0
-0.516943  12.896700  -1.066180  0
-0.869859  15.522500  0.070556  0
10.319900  11.303200  -6.965160  0
10.037400  -45.294399  -5.027800  0
0.269856  17.345501  4.193320  0
10.461500  14.929300  -6.958190  0
8.689580  14.691500  -8.126090  0
-0.303132  19.152000  5.778060  0
-0.070111  19.834200  7.636020  0
-0.352273  20.322201  5.778820  0
20.127100  -52.389801  13.326300  0
20.370899  -52.939098  12.544900  0
13.834700  -52.438000  -2.716070  0
1.479940  -48.323601  5.179670  0
0.128592  17.932600  7.449600  0
7.985780  -52.644901  0.840448  0
8.625600  -54.637699  18.953100  0
16.852200  -49.234001  -5.396920  0
18.461000  -46.887199  -5.504900  0
5.436900  -50.393398  -3.042510  0
7.198570  -49.593300  -4.321180  0
20.030500  16.795500  -1.477630  0
18.236099  18.527599  -1.862490  0
1.993920  -50.921200  3.340670  0
1.977540  -50.003700  1.953180  0
0.079368  15.356300  -3.103620  0
0.358555  16.828100  -4.817630  0
3.753680  -52.591900  9.436320  0
7.615830  -53.463001  2.698530  0
8.039730  -53.215801  1.788190  0
7.461880  -55.530201  2.871220  0
6.033040  -52.690899  22.104000  0
-0.173549  17.830999  2.543780  0
3.452620  -52.271099  4.826930  0
4.344110  -52.674400  4.334890  0
6.726330  -56.316700  20.846399  0
7.177000  -53.746300  2.293540  0
3.059270  -55.757000  9.603450  0
12.588000  -51.434101  -2.862510  0
13.757600  -52.262501  -3.537520  0
10.450700  -50.453499  -4.237830  0
10.142300  -51.627998  -3.767330  0
19.465300  12.131600  27.972700  0
25.794901  8.085200  24.654400  0
26.793699  8.303460  21.274401  0
25.889500  9.038450  22.034599  0
31.831499  -34.592602  18.384600  0
31.137100  -35.953999  19.323799  0
31.114700  -35.679100  17.752399  0
33.327599  -17.452801  20.628300  0
32.084301  -32.004002  19.191900  0
32.772701  -21.846901  21.494301  0
33.399799  -21.542601  21.924200  0
32.852001  -23.022301  23.591999  0
33.388802  -13.954600  12.352700  0
33.047100  -14.104000  13.355900  0
33.480900  -15.590100  12.981100  0
31.695700  -17.813700  10.132300  0
33.644100  -11.358100  9.617850  0
33.308102  -11.494100  11.123600  0
33.666599  -12.765800  10.629200  0
33.119900  -22.969400  24.620501  0
33.695202  -21.034700  22.453100  0
33.499500  -21.443899  25.472799  0
32.180302  -24.893999  30.759899  0
32.301102  -25.048901  29.564699  0
32.478100  -26.789000  30.013599  0
32.070999  -23.930500  29.684200  0
32.625000  -23.954500  26.079500  0
33.109699  -23.270300  26.556801  0
32.624298  -23.039700  30.576500  0
33.887299  -19.943501  27.226900  0
33.857700  -18.599199  27.555300  0
33.532700  -20.565201  29.649599  0
32.726799  -25.205900  27.578400  0
32.916500  -25.181499  26.136499  0
33.467499  -22.002100  29.139900  0
32.982700  -23.364500  28.765100  0
33.135399  -26.931101  27.839899  0
33.250099  -26.091299  26.682199  0
28.195999  -28.165899  34.642700  0
29.676100  -29.447100  33.397301  0
29.370001  -25.435200  34.217602  0
32.676800  -24.732901  24.975500  0
27.139999  -39.072498  29.701099  0
28.124599  -37.322102  30.864401  0
26.099001  -39.776798  31.026899  0
32.925800  -30.397100  24.869101  0
33.322601  -27.852800  26.350201  0
32.733898  -28.914400  28.015200  0
33.426800  -19.248800  22.105400  0
32.629902  -23.704100  23.272200  0
25.824400  -38.920898  33.008801  0
32.418598  -30.689899  26.337000  0
31.666700  -31.018600  27.736401  0
31.842600  -31.386999  26.155001  0
30.900999  -32.859600  28.295601  0
29.981300  -32.829201  29.466700  0
28.287600  -35.156101  31.897200  0
27.391199  -34.342201  33.022499  0
27.617201  -35.209801  33.018200  0
32.793201  -19.182199  30.735201  0
31.959801  -23.771999  31.949600  0
30.469000  -32.063801  26.964500  0
29.058800  -32.319801  29.858601  0
30.605400  -30.439699  31.606001  0
29.549801  -31.086800  32.571701  0
31.106600  -23.674400  33.189800  0
31.206699  -25.681299  32.276100  0
33.340698  -17.888399  24.830999  0
33.639900  -19.693800  25.336800  0
28.052900  -26.611300  34.907902  0
31.396700  -18.825100  32.185902  0
31.179899  -21.685101  33.178501  0
26.985600  -26.490299  34.845001  0
25.380899  -37.626598  34.538200  0
23.870600  -37.172501  35.649200  0
23.267000  -39.116199  35.164501  0
30.387899  -34.762501  28.935499  0
29.496799  -34.341202  30.326900  0
23.098801  -36.314301  35.780899  0
21.789600  -36.902500  35.663101  0
22.427000  -38.210899  35.667500  0
28.501900  -22.988899  34.613201  0
29.363701  -20.625099  34.204601  0
28.516701  -20.208700  34.078899  0
30.886801  -31.433500  27.885099  0
30.623199  -31.177799  30.098600  0
31.365400  -30.510900  29.817200  0
29.051701  -31.930201  31.235399  0
29.975300  -22.874701  34.202499  0
30.343901  -20.672400  33.822399  0
30.025900  -18.955000  33.307201  0
25.858801  -33.923000  33.972698  0
26.306400  -34.944099  34.396000  0
27.104200  -33.673901  32.377399  0
28.332800  -32.414101  32.431400  0
28.568199  -33.684799  31.194201  0
28.194201  -24.917500  34.664299  0
28.998400  -24.951900  34.500301  0
29.804300  -31.661699  31.017099  0
27.676901  -32.652000  33.348202  0
27.979500  -32.451698  31.479099  0
30.219500  -17.154301  32.090801  0
26.162100  -36.374901  34.445900  0
27.202600  -28.604300  34.856899  0
28.483400  -30.890499  33.808800  0
33.390202  -26.319700  24.482901  0
22.598200  -35.263199  36.417599  0
20.564800  -37.583801  35.955399  0
28.307899  -36.056999  31.637899  0
27.175100  -36.816799  33.026901  0
33.685299  -18.196699  28.466400  0
33.047298  -17.506901  29.158300  0
21.154400  -37.458199  36.834301  0
21.140100  -37.388901  37.841400  0
20.292500  -37.293999  39.188000  0
19.753901  -38.276600  37.798698  0
24.458000  -27.061100  38.534801  0
23.367300  -27.353001  38.953300  0
23.987700  -28.742100  38.506500  0
32.880299  -13.009700  8.033090  0
24.295500  -29.878099  36.365002  0
33.458900  -30.147600  10.248700  0
33.530399  -28.837299  11.867500  0
33.072498  -30.853500  12.188800  0
23.646000  -29.925400  37.396900  0
26.087799  -27.572100  35.144100  0
25.943501  -28.094299  36.011299  0
19.816999  -35.935600  40.608700  0
17.995501  -37.069401  41.326000  0
18.188400  -37.801498  40.448799  0
24.671499  -31.410900  35.174999  0
26.418100  -31.188700  35.054699  0
24.864500  -28.945801  37.386299  0
23.629000  -25.856001  38.536499  0
23.649200  -30.412600  34.976101  0
30.237000  -35.986401  28.068001  0
23.985901  -34.684799  35.333099  0
32.889301  -12.139900  7.716510  0
24.784000  -35.783699  35.410801  0
26.380199  -33.153099  33.449299  0
26.662399  -32.680901  34.369099  0
18.946899  -33.907101  41.887299  0
16.045200  -35.580399  43.268501  0
21.668699  -35.413700  39.125702  0
23.184299  -33.683300  38.188999  0
21.529400  -32.695900  40.263100  0
25.959700  -32.045101  34.917099  0
32.071999  -15.963200  29.381599  0
31.593599  -13.659500  30.832600  0
30.755301  -14.936700  32.879101  0
32.362301  -9.698090  10.818500  0
32.638302  -9.605110  9.557760  0
27.888000  -20.722500  35.490799  0
27.708200  -23.340900  36.041801  0
33.341702  -27.059200  11.868700  0
33.617500  -26.320101  11.132900  0
30.448601  -15.977000  32.804001  0
29.783701  -15.036400  34.489300  0
22.652000  -31.191900  39.098801  0
26.764900  -26.333900  35.496700  0
22.497499  -35.786201  37.597198  0
22.165800  -29.123699  40.321602  0
22.245100  -31.507799  39.798199  0
24.814501  -25.551901  38.496399  0
28.240200  -19.038799  34.826500  0
26.229601  -23.715799  38.793301  0
26.765400  -25.697100  36.868000  0
27.378000  -20.782200  37.710999  0
23.581900  -33.014301  37.736900  0
24.853600  -24.678699  39.466000  0
25.772699  -25.296801  38.170200  0
27.132401  -25.701401  35.999001  0
34.063301  -24.884899  10.169500  0
32.005299  -10.455500  12.400200  0
32.607201  -11.940100  12.586900  0
29.250099  -17.036800  33.349400  0
28.933599  -17.657301  34.571800  0
29.219101  -16.560101  35.046799  0
34.729401  -13.114600  22.822201  0
34.300800  -10.989900  23.715099  0
33.845501  -12.473900  25.083000  0
25.519100  -27.024099  37.732700  0
27.841801  -20.025999  36.721199  0
30.560801  -37.607300  22.639099  0
29.148100  -39.569000  24.790899  0
28.628700  -40.485001  22.644800  0
33.781399  -15.488100  1.879480  0
32.787601  -17.041401  -0.552911  0
33.406502  -14.249700  0.873626  0
33.842701  -15.735300  23.791100  0
32.965199  -15.406600  25.542400  0
33.416000  -10.860300  26.626699  0
33.274101  -12.106700  26.773800  0
32.776699  -15.561300  26.252701  0
31.894501  -11.942300  29.634100  0
30.422400  -11.312900  31.911301  0
30.735500  -13.186200  32.629299  0
31.909500  -10.444600  29.341499  0
28.555300  -38.983898  27.708500  0
33.132500  -28.536699  12.687500  0
32.009499  -14.225600  27.978500  0
33.500500  -28.712900  23.032101  0
33.382999  -14.734200  11.489400  0
31.252600  -30.796801  20.862400  0
30.582300  -31.611700  27.008600  0
30.997299  -32.036201  23.093500  0
32.817501  -25.691000  28.451401  0
30.134300  -36.790199  18.194901  0
29.567699  -38.138401  20.560600  0
28.761700  -37.674099  18.073999  0
31.812599  -27.352301  31.359301  0
31.199800  -32.281101  24.613899  0
30.419701  -35.855202  17.206800  0
31.156200  -16.800400  31.200800  0
31.782301  -31.690001  22.765100  0
31.626301  -32.719700  25.397200  0
30.718201  -34.999199  15.754200  0
30.035801  -36.902401  16.320499  0
31.234301  -36.188099  14.890200  0
33.127201  -29.042900  19.594400  0
32.979099  -30.025400  21.956900  0
31.717899  -35.223202  20.709200  0
32.046799  -34.248100  21.380800  0
31.569700  -35.589802  23.215300  0
31.024200  -34.396099  16.626600  0
33.140301  -20.302601  -0.069698  0
32.961498  -21.433100  -0.892013  0
32.239700  -19.890400  -2.173700  0
31.638901  -33.144100  23.187799  0
32.982399  -18.177601  1.434480  0
32.622299  -18.002501  -0.511592  0
31.627399  -31.806101  24.327101  0
33.216900  -16.389000  11.883200  0
31.941500  -32.574299  21.562500  0
31.954100  -33.616901  22.300800  0
32.057999  -29.972900  28.931299  0
32.167500  -7.451550  24.786900  0
33.702801  -27.833099  21.952600  0
32.206001  -32.981499  18.163700  0
32.138302  -32.986198  20.266100  0
32.384701  -31.381800  23.901501  0
34.154099  -26.596901  8.901010  0
33.834202  -27.708700  10.171800  0
33.319801  -30.045799  8.876510  0
33.389400  -9.423850  25.400400  0
32.416901  -9.655680  28.049601  0
33.023399  -23.007799  21.820299  0
33.466900  -13.450000  9.719320  0
30.221800  -37.969501  21.879900  0
32.293701  -31.963600  17.215900  0
31.671700  -33.430099  16.698099  0
29.674801  -37.768902  26.657900  0
28.082100  -40.846699  25.718300  0
33.430000  -27.819401  18.544600  0
32.926300  -28.919100  18.838400  0
31.896999  -34.303699  24.019800  0
33.519001  -22.771601  20.587500  0
32.394901  -29.796700  19.634001  0
31.382401  -32.038601  21.900200  0
17.756399  -38.406300  39.700100  0
31.639900  -33.399200  26.466600  0
31.361200  -35.243999  25.396000  0
33.246498  -24.193501  22.742300  0
33.512199  -24.694500  21.837200  0
12.042400  -14.822800  48.267601  0
13.515800  -11.756500  46.639198  0
11.346200  -13.010300  47.239498  0
15.103600  -11.596300  46.263699  0
13.896200  -9.724080  44.731400  0
33.260601  -24.709999  24.002600  0
33.611099  -24.528601  19.909700  0
11.603100  -11.054900  45.244099  0
12.097700  -10.094100  44.790501  0
22.772499  -40.492100  34.810200  0
13.704100  -18.050200  47.191799  0
13.213000  -15.640900  48.158001  0
11.865300  -18.658400  48.214802  0
14.372000  -16.566900  47.513500  0
12.954300  -21.740801  45.959400  0
23.533501  -30.007500  35.173901  0
24.136000  -6.183500  38.479801  0
23.191799  -6.809730  39.276600  0
24.300900  -8.087590  38.551601  0
13.971100  -13.408000  47.440201  0
26.323099  -18.444300  39.729599  0
26.250401  -20.127199  39.840000  0
27.830099  -15.736300  37.391201  0
17.038000  -11.211800  44.675999  0
16.566401  -12.240900  45.916302  0
15.692500  -10.195100  44.008499  0
21.667500  -15.816000  43.367100  0
23.684999  -14.978800  41.422298  0
23.088100  -13.975000  42.046001  0
25.567101  -15.617500  39.483501  0
25.940001  -17.451599  39.949402  0
27.413799  -14.410800  37.302700  0
24.187700  -14.689300  40.103199  0
24.789499  -19.167400  41.650600  0
23.982201  -18.032700  41.863701  0
23.364300  -19.544901  42.789001  0
28.372601  -18.090500  36.347301  0
28.893600  -15.629100  35.907398  0
16.062500  -15.533300  46.611500  0
15.989000  -13.833700  46.694000  0
26.953400  -13.313100  35.957802  0
26.524000  -13.823900  37.348400  0
24.996799  -17.035999  40.493698  0
24.791000  -15.395500  39.381199  0
32.374901  -29.654499  18.548599  0
17.511700  -14.282100  45.871799  0
24.102400  -16.999100  40.735298  0
20.113300  -13.977600  44.193802  0
22.087601  -12.804600  42.402901  0
23.183300  -18.351400  42.274601  0
21.235399  -19.516600  43.643200  0
24.810200  -12.327700  39.521500  0
32.506901  -30.408800  17.910000  0
22.265699  -18.281601  41.800701  0
21.407200  -17.629499  42.504902  0
21.193501  -16.725300  43.356400  0
20.447500  -20.420700  44.230400  0
20.080099  -21.871000  44.529400  0
17.271700  -21.621201  45.640099  0
25.460400  -13.145100  38.254299  0
21.378099  -10.266900  40.123199  0
16.963301  -16.458099  45.648201  0
19.730600  -12.622400  43.710999  0
20.296200  -11.675200  42.460400  0
19.101299  -11.915100  43.348900  0
16.969900  -20.774599  45.551998  0
14.126600  -24.233000  47.209301  0
15.119300  -22.492800  46.429401  0
13.338900  -23.851999  47.317200  0
22.876200  -9.750100  38.547600  0
21.245800  -8.442860  39.034401  0
19.490999  -19.692301  44.049198  0
24.818600  -11.080200  38.868900  0
25.493601  -9.286080  37.838001  0
24.503901  -9.754270  38.509602  0
13.124000  -22.388599  46.606098  0
15.703900  -20.379900  45.503502  0
23.620300  -10.182500  38.835701  0
14.800600  -24.761200  46.816700  0
14.152300  -27.187201  46.813900  0
17.754999  -18.108500  43.940300  0
16.756399  -18.082399  44.549500  0
14.966800  -20.001200  45.046902  0
25.406401  -12.484600  38.723999  0
24.011801  -11.953300  40.324001  0
25.166700  -6.600790  37.390499  0
28.421101  -14.552100  36.197399  0
25.938801  -11.409100  38.067299  0
22.760599  -10.876600  40.524799  0
27.739500  -13.686400  36.217899  0
33.243301  -16.707300  23.642000  0
23.019800  -20.809000  43.135300  0
18.789900  -15.638500  45.134800  0
18.805799  -14.158500  45.206100  0
18.854601  -17.656700  43.967701  0
32.494301  -16.814199  24.152000  0
27.231400  -12.085500  36.368900  0
18.204901  -12.451500  44.943901  0
25.762699  -6.090720  36.484501  0
27.477900  -5.585710  33.955898  0
26.460600  -4.662030  33.927101  0
17.227600  -22.651899  45.480000  0
16.987499  -33.445499  43.585201  0
18.725100  -16.726000  44.797901  0
28.981501  -5.591990  31.542299  0
27.729601  -4.512610  32.179199  0
16.882200  -31.261000  44.333199  0
14.596400  -32.676399  45.347401  0
33.556400  -9.129810  23.007000  0
27.759899  -6.832940  34.601601  0
17.943701  -25.364300  42.995800  0
30.607201  -10.474700  30.691099  0
29.660101  -8.214770  31.449400  0
29.265301  -7.762540  32.440300  0
27.852501  -10.115600  35.475899  0
22.629801  -7.554650  39.348301  0
28.135700  -10.913400  34.936901  0
28.559500  -7.253760  33.625099  0
19.617201  -24.185301  43.939800  0
27.784401  -37.555801  17.628700  0
31.911800  -4.550660  24.749399  0
30.695601  -5.387720  28.371000  0
30.262600  -7.978160  29.236500  0
30.104900  -6.573240  29.914499  0
21.019300  -25.775600  41.808701  0
18.709801  -28.177000  43.123699  0
28.337999  -38.264000  19.760599  0
20.705999  -25.063900  42.779598  0
23.196800  -24.549101  41.672699  0
20.806900  -23.530399  43.645199  0
31.182501  -7.126280  28.038900  0
22.802099  -25.321501  41.238300  0
15.602600  -30.749001  45.029301  0
23.541901  -23.087099  42.193600  0
33.951900  -9.764820  23.355801  0
28.856899  -13.163600  35.160999  0
29.982300  -12.815800  33.551701  0
24.894699  -21.504000  41.340599  0
20.242500  -26.928301  41.823101  0
29.505100  -14.215800  34.958401  0
27.486500  -40.934200  27.683201  0
10.313600  -12.900100  46.571899  0
33.671799  -8.738190  17.097700  0
33.522999  -6.609000  17.209299  0
33.505100  -7.776200  18.789200  0
