#!ascii version of surfaces/CC00094AN13/label/lh+rh.surf+labels-reduced.vtk
28297 56586
4523 4524 4525 0
2560 1962 4526 0
4527 2894 112 0
4528 3526 1709 0
858 1012 3318 0
4529 2656 2655 0
4530 1014 173 0
2730 3876 4531 0
3076 4532 3077 0
3840 2416 4533 0
2416 4534 4533 0
2416 4535 4534 0
734 733 3232 0
928 1962 926 0
4536 4537 4538 0
4290 4201 3201 0
113 4539 4540 0
4540 4539 4541 0
4126 4542 2476 0
1816 1815 2534 0
1631 39 38 0
4543 4544 4545 0
4546 3101 3102 0
4546 3102 4289 0
4547 3701 4081 0
4548 4549 4550 0
4550 4549 4551 0
4552 4553 4554 0
2341 2324 1956 0
2260 4555 4556 0
2871 1496 4418 0
1269 2708 1270 0
1556 1558 1447 0
4557 4558 4559 0
4560 4561 4562 0
4563 4564 4565 0
812 542 4566 0
4567 4568 4569 0
2446 4570 3488 0
3491 498 4571 0
4502 2760 4572 0
2415 2414 4367 0
957 3521 955 0
2656 4573 1950 0
4574 1662 1636 0
1058 551 1056 0
2851 2853 4575 0
4576 4577 4578 0
2777 4579 2778 0
2777 3028 4579 0
4037 4039 4580 0
2044 1871 1527 0
4130 4581 4129 0
4582 4583 4584 0
2847 4204 2026 0
1515 1621 2207 0
4585 3936 276 0
4586 4587 660 0
4560 3857 4561 0
4588 1730 3940 0
4589 1801 1803 0
4590 4591 4592 0
364 1034 3199 0
3217 3219 3454 0
23 1946 4593 0
1384 1383 4594 0
3853 498 1062 0
789 2980 650 0
4087 1294 1296 0
4595 4596 4597 0
2448 4598 4599 0
1870 1871 2044 0
3016 3018 2850 0
702 3306 703 0
4199 3531 4600 0
4199 1312 3531 0
4601 4582 4584 0
4602 1992 1995 0
1046 4603 92 0
3889 3754 3890 0
651 12 652 0
4604 4605 4606 0
4607 4608 4609 0
383 4610 381 0
4610 4611 381 0
3836 2979 4612 0
4613 4303 4302 0
3825 4614 4615 0
1682 4616 4617 0
1680 1682 4617 0
303 2267 2268 0
4429 4618 4619 0
1031 1468 617 0
4620 4621 4622 0
2151 281 283 0
1143 899 901 0
4613 4302 4623 0
2981 4624 2813 0
4625 2220 565 0
691 939 938 0
2075 1499 2137 0
1282 2075 2137 0
4626 3173 851 0
4596 4626 851 0
2416 2415 4535 0
4627 4628 2856 0
4629 4627 2856 0
3493 2367 2366 0
1578 1577 4630 0
4631 2858 1927 0
4487 4632 4488 0
1078 4633 4155 0
3482 3481 4634 0
4138 4635 3967 0
455 4636 3776 0
2110 3754 3889 0
2280 2279 3552 0
2753 2755 4637 0
1168 3275 2024 0
665 678 4407 0
252 2464 4638 0
1566 4639 4640 0
1566 1567 4639 0
1142 4641 4193 0
899 1142 4193 0
4126 4125 4642 0
467 465 1906 0
4066 4643 4064 0
912 4644 347 0
912 347 346 0
4645 4646 4647 0
2981 1853 4624 0
4303 1127 1039 0
4303 3856 1127 0
4648 4371 2946 0
95 355 481 0
4649 3335 4650 0
576 374 4651 0
909 4652 910 0
3200 2308 1267 0
2606 1310 4653 0
252 4638 1901 0
4654 1477 4655 0
4656 3600 4657 0
3598 3600 4656 0
2495 4658 4659 0
4656 4660 4661 0
4662 2090 2092 0
4234 4663 4235 0
4664 701 2774 0
2774 701 700 0
3413 3489 4282 0
1720 1722 3922 0
4665 4489 2700 0
4666 4489 4665 0
4667 4668 4201 0
4669 80 4670 0
2467 4671 4424 0
2468 4671 2467 0
1485 2006 4672 0
3014 3624 3626 0
4673 4674 4675 0
4676 4677 4678 0
1662 3755 2110 0
20 22 1258 0
473 1281 3442 0
2391 2390 2663 0
1557 4502 1558 0
2287 2286 3335 0
4370 2287 1694 0
2738 4679 4410 0
4680 2689 793 0
4680 793 4681 0
4682 4683 4684 0
2713 1206 4685 0
2043 3214 1870 0
2506 4233 4235 0
4474 4686 4687 0
1300 1299 4688 0
4689 4690 4691 0
2774 2775 3135 0
2925 2927 4692 0
1871 940 4693 0
2160 2162 4694 0
2079 4695 3779 0
2130 3164 236 0
494 1048 4041 0
1957 673 1813 0
81 3264 82 0
2950 3099 4696 0
2264 2081 4294 0
249 4697 4698 0
4699 4700 4701 0
365 3773 3844 0
1184 1183 1305 0
4702 4682 4703 0
4704 4705 4706 0
4707 4708 4709 0
3071 4710 973 0
3167 1339 2479 0
2479 2480 3168 0
1994 1993 4021 0
4711 4712 3720 0
714 2524 3105 0
4713 2919 3816 0
2270 4714 4715 0
2270 4388 4714 0
4716 804 4717 0
594 596 1080 0
4718 2856 2858 0
4719 4720 4721 0
2172 4722 969 0
3831 4723 4724 0
2111 2113 4725 0
4726 4727 4728 0
43 45 2907 0
2643 2645 4729 0
4730 4731 4732 0
1225 4054 1226 0
2797 2422 4733 0
1469 473 3442 0
2283 2285 3657 0
4734 1580 1659 0
805 804 4716 0
4735 4736 4214 0
4719 4721 4737 0
4738 4739 4740 0
1576 1746 1577 0
2656 91 4741 0
2134 2136 4742 0
4743 368 371 0
80 2363 81 0
4744 941 233 0
636 4514 4745 0
4746 4747 3567 0
4746 3567 4748 0
4749 3581 583 0
1214 1605 4722 0
834 1605 1214 0
4750 4751 4752 0
3365 4753 4296 0
362 2938 492 0
4754 1587 4755 0
4756 1435 3808 0
1815 2149 1713 0
304 2545 1712 0
664 543 542 0
1751 1753 2323 0
4757 4758 3833 0
4759 216 2327 0
4760 4759 2327 0
2497 2524 2542 0
2439 3809 3170 0
1826 1722 1721 0
1826 1721 2557 0
4761 4762 1872 0
2656 4741 4573 0
4722 1605 969 0
2747 3820 3906 0
2374 4763 4007 0
2182 2184 4764 0
4765 4766 4767 0
1490 4768 4769 0
3971 906 2734 0
906 4349 2734 0
4770 2593 4771 0
4772 4748 3567 0
3581 4773 4116 0
4116 4773 4774 0
4775 4776 4777 0
4778 4779 4780 0
4781 4782 4783 0
3019 1313 2312 0
2312 1313 4200 0
354 787 3026 0
2327 2328 4784 0
4785 2327 4784 0
4341 4343 4786 0
4787 4332 4314 0
3054 4788 3052 0
4789 3653 3656 0
1330 4790 4791 0
1330 1329 4790 0
2055 4792 2056 0
844 4793 4794 0
2755 2278 4637 0
248 4697 249 0
3164 2275 2278 0
3383 3382 2571 0
2492 4734 1659 0
973 4710 974 0
1106 3595 1495 0
4199 4600 4795 0
235 2939 2714 0
4685 1206 4796 0
1760 4790 2584 0
4791 4790 1760 0
4797 3813 924 0
924 3813 2282 0
4798 1662 4799 0
1469 3442 1944 0
74 1471 75 0
1565 4800 3722 0
4801 4380 4802 0
405 404 1136 0
985 4803 3709 0
4804 2839 4805 0
4806 4804 4805 0
3674 4807 3162 0
4808 4809 4810 0
4670 82 4811 0
4670 80 82 0
2477 2476 219 0
4812 3541 4813 0
1812 1811 2277 0
4814 4815 4816 0
2248 4817 2249 0
4818 4819 4820 0
4821 1160 4822 0
3053 3052 4823 0
4824 4825 4826 0
4827 3912 1050 0
2842 838 3177 0
1609 1836 4237 0
4828 3857 4560 0
4805 2839 2838 0
447 4829 448 0
2367 3454 2368 0
4830 4262 4831 0
3474 2942 2477 0
1833 1607 2007 0
4347 4832 4833 0
2398 4834 4835 0
2398 4836 4834 0
4837 4542 4126 0
729 4838 728 0
4839 2401 4840 0
4841 4842 247 0
4843 4844 4845 0
4407 24 26 0
4407 26 665 0
3480 4410 4846 0
4847 1652 4848 0
3398 2156 605 0
3489 4849 2548 0
849 3220 850 0
697 4850 698 0
1333 4851 1331 0
4393 4852 4853 0
4393 4392 4852 0
1954 2105 4854 0
1954 4854 4855 0
843 4856 4857 0
2183 1686 3323 0
4858 4859 1232 0
4860 4861 4862 0
1184 734 3232 0
734 1184 1306 0
4863 4864 4865 0
4843 4845 4866 0
4866 4845 4867 0
4868 4869 4870 0
2828 4089 4871 0
4872 4320 3996 0
4386 4387 4873 0
4874 4875 4876 0
2498 4640 4877 0
4878 4879 4880 0
1531 2812 314 0
4881 4882 4883 0
2696 829 4884 0
2260 4556 2454 0
4885 4763 4886 0
4887 2161 2512 0
2493 356 358 0
4888 4889 4890 0
3024 3023 2643 0
87 1596 1812 0
4891 3045 3044 0
4892 4893 3556 0
4894 4895 4896 0
4897 111 4171 0
4171 111 432 0
2910 4898 1519 0
2910 4899 4898 0
4900 4901 4902 0
4903 4904 4905 0
4903 4906 4904 0
978 4907 822 0
4908 4320 4872 0
1652 4909 4848 0
2390 23 2663 0
2477 280 2478 0
629 712 711 0
3539 4910 3540 0
3179 2263 2261 0
4319 3996 4320 0
822 4907 684 0
4337 4336 4911 0
3634 3636 4912 0
4913 1072 4450 0
2002 2937 2003 0
4914 4915 4916 0
4917 4918 4919 0
4920 4921 4798 0
4909 1652 1968 0
832 2680 833 0
1476 799 4922 0
1476 4923 799 0
4924 4925 4926 0
566 4049 567 0
4047 566 3622 0
2130 4927 3164 0
3511 4928 3512 0
4929 4930 4931 0
127 4932 4019 0
128 127 4019 0
3895 3894 3187 0
4933 4934 4935 0
2120 1156 72 0
2259 4555 2260 0
4936 2774 3135 0
4438 4937 2212 0
4438 2212 4439 0
4938 4939 1664 0
4939 2334 1664 0
2607 4940 1307 0
1040 1575 1665 0
4571 3853 4941 0
3495 1395 4942 0
4299 4298 3587 0
4298 198 3587 0
4943 4944 2940 0
2561 2640 2562 0
272 3896 273 0
2203 4945 2204 0
4946 4947 4948 0
4949 1626 1625 0
2178 1470 3590 0
1575 2017 3431 0
2579 2578 4950 0
4951 4952 4458 0
4953 4951 4458 0
4954 3770 4955 0
700 4473 2280 0
699 4473 700 0
4956 4957 4958 0
2338 4959 2339 0
4960 3288 375 0
375 3288 376 0
4961 4962 4963 0
3818 3407 3860 0
1670 4964 4965 0
3084 3083 3565 0
4196 3084 3565 0
4361 2907 4966 0
3224 4967 4968 0
2061 3224 4968 0
1027 1028 4969 0
112 111 4527 0
877 4530 173 0
4332 4970 4971 0
4333 4332 4971 0
3718 4972 4973 0
3718 4973 3719 0
4974 4972 4975 0
4643 4587 4586 0
1940 1660 1497 0
3373 3372 4976 0
4977 4978 2206 0
4979 2440 2442 0
798 2297 2296 0
4980 2206 4978 0
4207 4981 3158 0
4982 4550 4551 0
3760 4983 3761 0
4984 4841 4985 0
87 86 1650 0
1673 789 788 0
1877 3787 1603 0
2633 663 2634 0
2093 4986 3082 0
1720 3480 1721 0
4987 4988 4989 0
3090 4990 3927 0
3927 4991 3928 0
11 4992 2288 0
2911 4993 367 0
2298 2297 4994 0
541 540 4995 0
316 315 2449 0
316 2449 2544 0
82 3264 1847 0
4128 249 4698 0
4943 4996 4944 0
3621 4997 4998 0
4702 4997 3621 0
4999 5000 5001 0
2857 1927 2858 0
5002 157 156 0
4385 3760 4387 0
3760 3759 4387 0
36 1490 1492 0
5003 5004 5005 0
5006 5007 5008 0
5009 5010 5011 0
4128 3161 249 0
5012 5013 146 0
5013 5014 146 0
5015 2979 4405 0
1633 1579 1581 0
1657 3034 3674 0
3674 3034 4807 0
1872 4762 5016 0
5017 1872 5016 0
966 968 909 0
2364 3792 4232 0
5018 4345 4344 0
5019 5020 1509 0
5021 5022 4643 0
617 269 5023 0
5024 2979 5015 0
5024 4612 2979 0
1161 1160 5025 0
5026 1161 5025 0
4235 17 2506 0
1073 4659 3152 0
4148 4229 543 0
5027 4316 1989 0
5027 1989 3673 0
5028 5029 5030 0
5031 4315 5032 0
4315 4316 5032 0
5033 5034 136 0
3636 2768 4912 0
4912 2768 2769 0
1953 5035 2105 0
5036 5037 5038 0
5022 5039 4643 0
5040 5041 5042 0
305 307 3408 0
2065 5043 5044 0
5045 5046 5047 0
5045 5047 5048 0
3584 3774 3585 0
4318 5049 4319 0
1863 2542 2524 0
1419 5050 3949 0
5023 43 4361 0
5051 5052 4971 0
5053 5054 5055 0
3502 5056 3501 0
3545 5057 3059 0
3058 3545 3059 0
5058 5059 5060 0
923 5061 924 0
4025 4252 3987 0
4250 4252 4025 0
5062 5063 5064 0
3179 2670 4710 0
1394 2080 3779 0
3998 4319 5065 0
3998 5065 5066 0
3815 3862 3863 0
5067 3862 3815 0
5068 5069 5070 0
3390 787 97 0
5052 4485 4971 0
5071 5072 5073 0
3295 4228 4227 0
525 527 5074 0
5075 5076 5077 0
5078 5079 5080 0
5081 5082 5083 0
5053 5084 5085 0
4997 4702 4703 0
5086 5087 5088 0
5089 5090 752 0
3901 5091 3902 0
2523 1285 5092 0
2680 3455 2679 0
5093 2038 2279 0
3266 5094 723 0
2252 2254 4129 0
1775 1720 3922 0
5095 2457 4830 0
3583 3585 508 0
5096 3584 3583 0
4998 3533 3621 0
3966 5097 4138 0
5098 5099 5100 0
2037 2039 5101 0
5102 824 823 0
10 5103 2460 0
1728 5104 3939 0
650 1646 4451 0
4117 4118 5105 0
4697 248 5106 0
4697 5106 5107 0
3628 3861 442 0
825 3628 442 0
5108 5109 5110 0
4122 1744 1599 0
4637 2278 2277 0
2728 2705 5111 0
5112 2728 5111 0
5113 5114 5115 0
5116 5113 5115 0
5044 5043 5117 0
3836 5118 5119 0
325 5120 5121 0
3035 4317 3430 0
3430 3036 3035 0
2706 2705 2728 0
5122 5123 5124 0
5125 386 385 0
5125 385 5126 0
4296 4753 4295 0
2232 3916 2815 0
2232 3510 3916 0
3479 3551 4410 0
2275 4927 2276 0
494 4042 305 0
5127 5128 5129 0
442 3861 817 0
4794 4793 5130 0
5131 885 5132 0
1157 5133 1158 0
73 1156 1825 0
3083 3085 5134 0
4295 5135 3546 0
5136 2448 4599 0
1192 4372 1400 0
1308 2436 2055 0
2055 2438 4792 0
4147 1135 994 0
2522 2634 1285 0
4505 823 538 0
5137 5138 5139 0
4604 4606 5140 0
1029 3084 4196 0
1959 5141 1960 0
1959 5142 5141 0
5143 5144 5145 0
5143 4263 5144 0
7 5146 5147 0
5148 5146 7 0
4769 1011 5149 0
5149 1011 5150 0
5151 5152 3438 0
3656 3655 4092 0
5153 4278 5154 0
2662 2531 3286 0
5155 3001 3003 0
2911 366 5156 0
2550 5157 4165 0
4423 2207 1655 0
5158 2598 5159 0
5160 5161 5162 0
3647 3144 3146 0
1079 1638 5163 0
5164 2815 5165 0
3986 3988 5166 0
4028 3024 4166 0
1569 2700 1570 0
390 299 5167 0
4235 5168 17 0
5169 5170 5171 0
3445 5172 3446 0
5173 5068 5174 0
5175 5176 5177 0
5175 5178 5176 0
5179 5180 5181 0
987 986 5182 0
987 5182 607 0
5183 5184 5185 0
5128 4614 3825 0
5186 5187 4857 0
3506 3508 5188 0
43 5023 269 0
3153 5189 3155 0
1926 5190 1924 0
3117 2775 3887 0
4623 5191 5192 0
4302 5191 4623 0
4879 4878 5193 0
5193 4878 1834 0
2093 3082 2091 0
1603 3787 5194 0
237 3164 2278 0
201 4297 986 0
4794 5195 5196 0
2528 4128 5197 0
5197 4128 4698 0
2596 2598 5158 0
5198 5199 2888 0
5200 574 5201 0
575 574 5200 0
5202 5203 5204 0
2028 3678 2029 0
4571 498 3853 0
3135 3116 434 0
4473 2281 2280 0
2276 4927 88 0
5205 4242 4241 0
3580 3045 4357 0
4987 5206 5207 0
5206 4987 4989 0
5208 5209 5210 0
3883 3885 2609 0
5211 1112 1111 0
5212 5213 5214 0
5215 4443 4444 0
5216 3045 3580 0
1750 5217 1748 0
5218 4263 4262 0
4263 5218 5144 0
5219 5149 5150 0
1817 2149 1815 0
2456 2458 5220 0
5043 2135 4267 0
365 367 508 0
517 516 1995 0
1749 5221 5222 0
3976 3045 5216 0
846 848 1636 0
4092 5223 5224 0
5225 5223 4092 0
5226 4399 1691 0
5227 5228 5229 0
5230 5127 4711 0
3164 4927 2275 0
3346 3345 4607 0
5231 5232 2360 0
5233 5234 5235 0
5236 3550 5237 0
2073 5083 5082 0
5238 5239 1958 0
1959 1958 5239 0
4233 5240 4234 0
3566 3083 5134 0
3566 5134 4847 0
4226 4598 2448 0
5241 5242 3963 0
5242 4611 3963 0
5243 5244 5245 0
5243 5246 5244 0
2114 5247 5248 0
5249 3756 3166 0
2948 5250 2008 0
18 17 3044 0
4226 2733 5071 0
5251 2203 2202 0
3485 889 888 0
2489 2957 2490 0
5252 5253 877 0
3496 3460 3459 0
4314 5075 5254 0
4314 5254 4787 0
5255 5256 5257 0
4299 3587 5258 0
5259 5260 4403 0
5199 3622 307 0
3296 3295 4231 0
5261 5262 5263 0
336 891 893 0
2822 3172 5264 0
2822 2394 3172 0
4992 11 2459 0
5265 5266 5267 0
5268 5265 5267 0
5269 3534 3533 0
5203 5202 5270 0
2911 5156 4993 0
1712 2545 3805 0
5271 5272 348 0
3777 5273 5274 0
5275 699 701 0
5275 701 5276 0
4997 5277 4998 0
642 641 5278 0
5279 5280 5281 0
5282 5283 5284 0
5285 5286 4508 0
5287 5288 5289 0
5290 5291 5292 0
4052 4053 5293 0
5293 4053 5294 0
5295 3339 5296 0
4998 5240 3533 0
4998 5297 5240 0
5298 1948 1947 0
4013 4012 5299 0
4663 5168 4235 0
5300 5301 5302 0
5300 5303 5301 0
5304 5305 5306 0
5307 3830 5308 0
5309 5310 5311 0
5222 5217 1750 0
5312 5313 5314 0
5312 5315 5313 0
3070 3080 3071 0
3071 3080 3179 0
3188 5316 5317 0
3188 5317 2795 0
4624 5318 1838 0
5298 5319 1948 0
5320 5321 5322 0
307 567 3408 0
1609 1608 1836 0
3059 5057 5323 0
4972 4974 4973 0
1838 1988 1839 0
2665 4184 1431 0
159 2842 3177 0
2251 159 3177 0
1376 5324 5325 0
5326 2238 2962 0
1744 5327 1745 0
971 925 5328 0
4712 4711 5127 0
5318 5329 1838 0
5330 5023 4361 0
49 1767 5331 0
5332 3174 5333 0
5334 5335 932 0
5336 5337 5338 0
5339 5138 5137 0
5340 5338 5337 0
5341 5342 5343 0
806 4717 804 0
5344 436 5345 0
5346 3191 820 0
5347 5348 5349 0
5350 5351 5352 0
5353 5354 5355 0
5356 3122 5357 0
4156 4157 5358 0
5359 4988 5275 0
3152 4659 3153 0
3153 4659 5360 0
5361 5362 5363 0
3145 5364 4683 0
5364 5365 4683 0
3533 5240 4233 0
5366 5367 5368 0
3587 198 3588 0
5369 5370 5371 0
5372 4432 2588 0
5373 5374 5375 0
5376 5377 5378 0
5376 5378 5379 0
5199 307 306 0
5380 5051 4971 0
5381 5382 5383 0
5384 5385 5386 0
5387 5388 5389 0
2133 2132 5390 0
5391 5392 5393 0
1703 69 5394 0
5146 5395 5147 0
5230 4711 4614 0
5396 5397 5398 0
5339 5137 4597 0
4047 2230 4048 0
409 412 3535 0
3535 412 5399 0
5400 547 5401 0
4174 5402 4172 0
5403 5030 2718 0
5404 2703 5405 0
5404 5405 5406 0
2756 5407 5408 0
3155 5189 5203 0
537 535 534 0
4988 4987 5275 0
2998 5409 1968 0
5410 5411 5412 0
5413 5414 3007 0
5415 5416 5417 0
5418 3368 3367 0
1652 5419 1653 0
5420 5421 5422 0
2106 2108 2978 0
2106 2978 3964 0
5423 5424 5425 0
5424 5292 5425 0
4321 4320 4908 0
5426 4623 5192 0
5427 5428 3924 0
5269 3533 4233 0
4494 5429 5430 0
4492 4494 5430 0
3185 3188 5101 0
5431 5432 5433 0
5434 5435 5436 0
3146 3532 3647 0
3990 4785 4784 0
4727 4245 4728 0
5437 2537 5438 0
5439 5440 5441 0
5442 5443 5444 0
3924 5428 5445 0
1977 5446 5447 0
1834 4878 5448 0
5449 855 854 0
174 5450 4662 0
174 4662 2092 0
5451 5452 5453 0
5454 5455 5456 0
5457 5458 4023 0
5458 5457 5459 0
3821 4237 5460 0
3995 3997 5461 0
3588 200 5462 0
3588 198 200 0
1565 5463 4800 0
3188 2794 5464 0
5091 579 3902 0
5091 5465 579 0
5466 5058 5467 0
5466 5468 5058 0
5469 5283 5282 0
5470 5471 5472 0
5472 5471 5473 0
1102 5474 5475 0
4921 4920 5476 0
5477 5007 5478 0
3995 4872 3996 0
3297 3296 3350 0
5479 5480 5481 0
824 3405 3818 0
3405 3407 3818 0
4532 3076 5482 0
3505 5483 908 0
5484 4318 4321 0
5485 5486 708 0
2544 2449 2448 0
4015 5487 4437 0
5488 5487 4015 0
5489 3482 4634 0
5489 5490 3482 0
5491 5492 5493 0
5494 5495 5496 0
2614 2613 5497 0
4269 2614 5497 0
5368 5498 5499 0
5102 5500 824 0
5500 3405 824 0
5102 5501 5500 0
4301 3520 1504 0
3520 5502 1504 0
5279 5503 5280 0
4723 5504 4724 0
5505 5506 5507 0
5508 2280 3552 0
5107 5509 5510 0
5509 5511 5510 0
5512 5513 5514 0
4217 5515 1060 0
5516 5275 5276 0
5517 3795 4456 0
1075 5518 5519 0
3082 4986 3085 0
3085 4986 5520 0
5521 5433 5522 0
5521 5431 5433 0
5444 5523 5524 0
5525 5526 953 0
5527 5489 5528 0
5527 5528 2916 0
3306 5529 5530 0
5531 3306 5530 0
685 1284 683 0
5532 5533 5534 0
5535 5219 5150 0
1872 5017 1873 0
5536 5537 5538 0
343 5539 5540 0
5541 5542 5543 0
5544 5485 5545 0
5546 5547 5548 0
5549 5550 5551 0
5549 5552 5550 0
2721 5553 5554 0
5367 5555 5556 0
1977 5447 5557 0
5009 5077 5076 0
5558 5559 662 0
5560 3502 3462 0
5561 3486 3485 0
5562 2474 5563 0
5564 5565 5566 0
2414 5567 4366 0
3840 5567 2414 0
2368 2680 5568 0
3455 2680 2368 0
5569 5570 5571 0
5572 5573 5574 0
5575 5576 5577 0
5578 5579 5580 0
5581 3361 5582 0
4675 5583 5584 0
5585 5586 5428 0
5587 5588 5589 0
5590 5591 5592 0
5593 4869 3394 0
5593 3394 3396 0
4075 5594 5595 0
5596 5597 1434 0
1433 5596 1434 0
5598 5599 5600 0
5601 5602 5603 0
5602 5604 5603 0
3076 5605 5482 0
5606 5607 5608 0
5609 5610 5611 0
3835 5609 5611 0
5612 4437 5487 0
5612 5613 4437 0
3791 5614 4335 0
5614 4336 4335 0
4236 3154 5270 0
5615 764 5616 0
5617 1686 3301 0
5618 5619 5620 0
2952 984 3056 0
5621 4107 3377 0
661 660 4587 0
5622 5623 5624 0
5625 5626 5627 0
4638 5628 5629 0
5630 5631 5632 0
5633 5634 5635 0
5633 5635 5636 0
4963 4383 4382 0
5637 5638 5044 0
5639 5640 5641 0
5642 5640 5639 0
2131 5643 5506 0
5644 5103 10 0
5645 5646 5647 0
5648 106 1158 0
5649 106 5648 0
5650 5651 5652 0
5653 5654 5655 0
58 5656 5657 0
5658 5656 58 0
858 3318 859 0
5659 5660 5661 0
5662 5363 5362 0
5663 5664 5665 0
5666 3124 5667 0
5668 5669 5670 0
5671 5672 5673 0
5674 5675 5676 0
439 5677 5678 0
4632 5464 4488 0
5679 5680 3925 0
5359 4989 4988 0
5681 5682 5683 0
5684 5685 3476 0
3476 3478 5684 0
2693 5686 5687 0
5688 3557 5689 0
5690 5691 5692 0
5693 5694 5695 0
5696 5697 5698 0
5699 5316 3187 0
5700 5672 5671 0
5511 3079 5076 0
5701 680 679 0
1482 3740 5702 0
5703 5704 5705 0
5706 4044 5707 0
5142 5708 5709 0
5142 5709 5141 0
5367 5366 5555 0
5710 5711 5712 0
3757 4076 3316 0
5542 5713 5543 0
5714 5715 4093 0
5716 5717 1233 0
5118 5644 5119 0
5718 5719 5720 0
5721 5722 5723 0
3703 5724 5725 0
5444 5443 5523 0
3106 3108 5726 0
1686 1688 3323 0
1135 5462 605 0
4147 5462 1135 0
5727 5728 5729 0
1077 1441 3847 0
5730 3007 5414 0
5731 5732 5733 0
5734 5735 2698 0
5736 5737 5738 0
5739 5740 5741 0
5742 3573 5743 0
5744 5745 5746 0
5747 5748 5749 0
5750 5751 5752 0
5753 5754 5755 0
5756 5757 5758 0
5759 5760 318 0
5761 3466 5762 0
3293 5763 3255 0
3145 4683 4682 0
4512 5764 5765 0
5766 2801 5767 0
5768 5769 5770 0
5771 863 4081 0
320 863 5771 0
5772 5757 5773 0
5757 5774 5773 0
4547 3702 3701 0
5775 5776 5777 0
5778 5779 5780 0
1042 677 1192 0
4583 5781 5782 0
5783 5784 4388 0
5785 5786 5787 0
756 755 2654 0
5788 5789 5790 0
5791 5792 5793 0
5794 5795 5796 0
5797 5798 5799 0
5800 5801 5802 0
5800 5802 5803 0
5804 5805 1562 0
5806 5807 5078 0
5806 5078 5808 0
5809 5710 5810 0
5811 5812 5813 0
5814 5811 5813 0
5815 5816 5817 0
5818 5076 5075 0
1171 5819 1169 0
874 873 5820 0
873 5821 5820 0
5240 5822 4234 0
3521 957 5823 0
5824 5825 2072 0
5826 5827 5494 0
5828 5829 5830 0
2461 2931 5831 0
4974 5832 4973 0
4973 5832 3719 0
5833 5834 5835 0
5836 5837 5838 0
5839 2444 5840 0
5839 2493 2444 0
5267 5841 5842 0
5843 5844 5845 0
5846 5847 5848 0
3794 5231 4456 0
3794 4456 3795 0
5849 1615 3841 0
5850 5851 5852 0
2837 5853 5850 0
1341 5854 1342 0
5855 5854 1341 0
5856 5857 5858 0
509 5859 3583 0
5860 5861 5862 0
5722 5863 5723 0
5864 5865 5866 0
5867 2899 5868 0
5869 5870 5871 0
5871 5870 5872 0
3579 3282 3580 0
5873 5667 3124 0
5413 3007 3006 0
2555 2554 5459 0
5459 2554 5458 0
1283 5874 1284 0
5875 5283 5551 0
3517 5209 5208 0
5876 5877 5865 0
4724 5504 5878 0
2625 3363 2626 0
4757 5235 5879 0
4757 3833 5235 0
3724 3887 4487 0
3887 5508 4487 0
2604 5880 3231 0
2415 4367 5881 0
3223 5882 4053 0
5883 5648 5133 0
5884 5885 5886 0
5887 5888 3039 0
5887 3039 3038 0
5348 5889 5524 0
4752 4751 5890 0
5891 5892 5105 0
5893 5894 5895 0
5896 5897 5898 0
5899 5900 5901 0
5899 5901 5902 0
5903 5904 5905 0
3833 2731 5906 0
5907 5908 5909 0
5910 5911 5912 0
5913 583 3776 0
3112 5914 5915 0
5838 5837 5916 0
5917 5918 5919 0
5920 5921 5922 0
5920 5922 5923 0
5924 5611 5925 0
1073 4236 4377 0
5926 5322 5927 0
5928 333 5929 0
5928 5930 333 0
723 5303 5156 0
5931 5932 5933 0
4786 4343 5934 0
5935 5546 5936 0
5937 5537 5536 0
5938 5939 5940 0
1761 1760 2584 0
5335 5941 5942 0
2181 2180 5943 0
3367 1867 1866 0
1866 1869 5944 0
5945 105 5946 0
5947 5948 811 0
5949 5950 5951 0
4462 1943 1942 0
5952 5953 5954 0
5955 5956 5957 0
5958 5959 5960 0
4316 5961 5032 0
4316 5962 5961 0
5963 1787 1789 0
5488 5964 5487 0
5965 5923 5966 0
5967 5968 5969 0
5970 5971 5972 0
5973 5974 5975 0
5976 1016 5977 0
5977 1016 1018 0
5978 5979 5190 0
5980 5981 5982 0
2395 1075 1074 0
4523 5983 5984 0
3972 5985 5298 0
4763 2717 5986 0
5987 5988 2111 0
5344 5989 436 0
5990 5991 5992 0
5993 5206 5994 0
4943 5995 4996 0
5996 5997 2933 0
5576 5998 5577 0
4075 5595 4076 0
88 1812 2276 0
848 847 1369 0
5999 6000 6001 0
5009 3079 3070 0
6002 4568 5191 0
4302 6002 5191 0
2290 3361 4737 0
2290 4737 2291 0
6003 5769 6004 0
6005 6006 6007 0
4683 5365 271 0
5365 6008 271 0
6009 4426 6010 0
4059 6011 6012 0
6013 6014 1702 0
6015 6016 6017 0
6018 6019 3278 0
2174 5328 1680 0
4494 6020 5429 0
6021 2234 5564 0
2234 6022 5564 0
5836 5838 6023 0
6024 3991 2015 0
3734 6024 2015 0
6025 6026 6027 0
4911 6028 4337 0
6029 4610 383 0
3787 6030 5194 0
6031 4912 1441 0
5206 5993 5207 0
6032 2992 6033 0
2992 6034 6033 0
1257 6035 2032 0
6036 6037 6038 0
5464 4632 2037 0
5101 5464 2037 0
6039 3116 3110 0
3116 3118 3110 0
6040 3184 1725 0
4788 4308 6041 0
5208 6042 3293 0
3293 6042 5763 0
6043 6044 6045 0
6046 6047 6048 0
6046 6049 6047 0
6050 5326 2962 0
6051 4771 6052 0
3996 4319 3998 0
4336 3757 4911 0
4974 5567 3840 0
5487 6053 5612 0
6054 6055 6056 0
4672 6054 6056 0
6057 6058 6059 0
6060 5415 5422 0
6061 4560 4562 0
6000 2575 6001 0
4285 6062 3801 0
6063 6064 6065 0
6066 6067 6068 0
6032 2993 2992 0
1592 6069 4740 0
2211 2651 2650 0
6070 6071 6072 0
6073 6074 6075 0
6076 6077 6078 0
6079 6080 6081 0
2037 3552 2038 0
2441 6082 2442 0
5484 5258 4318 0
6083 6084 6085 0
6086 5758 6087 0
1996 5137 1718 0
6065 6088 6089 0
379 4229 2633 0
6090 6091 6092 0
2444 2544 5840 0
6093 6094 6095 0
6096 780 3265 0
6097 4662 5450 0
3005 6098 6099 0
5173 6100 6101 0
6102 6103 6104 0
6105 1435 4756 0
6106 6107 6108 0
6021 6109 6110 0
538 825 442 0
6111 6112 6113 0
1606 6114 2452 0
338 1606 2452 0
6115 6116 6117 0
1847 1597 1650 0
3217 3454 2367 0
4167 6118 1681 0
6119 6120 2771 0
6121 6122 6123 0
6124 3704 4396 0
2269 4153 2107 0
6125 6126 6127 0
6128 6129 6130 0
6131 6132 6133 0
5179 6134 6135 0
5903 4324 5904 0
6136 6137 6138 0
6139 6140 5078 0
6116 6112 6117 0
6141 6142 6143 0
6015 6144 6145 0
6016 6015 6145 0
6146 1287 6147 0
3131 2763 3359 0
6148 6149 4824 0
6150 6055 6054 0
2090 4321 4908 0
6151 6119 2771 0
6152 3248 6153 0
2545 6154 3805 0
2545 6155 6154 0
120 122 3637 0
6156 6157 5091 0
3901 6156 5091 0
1115 6119 2725 0
6158 6159 6160 0
6161 6162 6163 0
6164 2691 6165 0
3613 3612 6166 0
6038 6037 6167 0
4133 903 4131 0
6168 6169 6170 0
6171 2040 2042 0
4986 4908 4872 0
6172 6173 6174 0
6172 6174 6175 0
290 1578 6176 0
5567 4974 4975 0
6177 6178 4652 0
6179 6180 6181 0
5277 5206 6182 0
6183 4793 844 0
844 4794 6184 0
6185 540 6186 0
6187 6188 6189 0
6190 3903 6037 0
6191 3534 5269 0
120 1300 4688 0
120 4688 862 0
6192 6193 6194 0
3394 6195 6196 0
6197 6198 6199 0
6200 1753 1752 0
6201 3986 5166 0
6202 6201 5166 0
6155 5332 5333 0
2760 3591 4572 0
5176 6203 6204 0
6205 5374 5373 0
4623 4303 4613 0
3847 1441 4912 0
4386 4873 6206 0
4386 6206 6207 0
6208 6209 6210 0
6211 6209 6208 0
6212 6213 3272 0
5895 5894 6214 0
5805 6215 1562 0
6216 6217 6176 0
3487 584 6218 0
335 3487 6218 0
5368 5367 5556 0
6219 6220 6221 0
4145 3038 3040 0
3903 4851 6037 0
6222 6223 6224 0
6225 6198 6197 0
1914 4338 6226 0
4367 4366 6227 0
5270 5202 6228 0
5581 4719 3361 0
496 495 6229 0
6230 4503 4504 0
2332 2331 6231 0
4869 5593 4870 0
992 994 518 0
5590 5566 6027 0
6232 6233 3865 0
6234 6235 6236 0
6237 6238 6239 0
2680 6062 5568 0
4337 6028 3350 0
6028 5139 3350 0
3175 4171 431 0
5298 6240 5319 0
5052 6241 4485 0
4485 4484 4971 0
4394 6242 3423 0
6000 3353 2575 0
6243 717 6244 0
5191 4567 5192 0
6245 6143 6142 0
5884 5886 4440 0
699 4987 4473 0
4473 4987 5207 0
6246 6247 6248 0
6248 6247 6249 0
6250 6251 5891 0
3713 6252 6076 0
6253 6254 6255 0
6256 5404 5406 0
6257 6258 6111 0
5330 6259 5023 0
6260 2824 6261 0
6262 3368 5418 0
5493 5492 2549 0
6263 5249 3166 0
6264 6265 6266 0
6267 6265 6264 0
2524 1374 3105 0
5593 6268 4870 0
6269 4548 6270 0
5137 5139 1718 0
4312 6271 4932 0
127 4312 4932 0
6272 6273 953 0
5175 6274 6275 0
5198 6276 6277 0
6278 6279 6280 0
1129 6281 1130 0
6282 6283 6284 0
4848 1886 6285 0
4847 4848 6285 0
6 5 156 0
785 4687 6286 0
1620 6287 4904 0
3399 6288 3400 0
6289 5136 4599 0
6290 4897 5926 0
2979 1945 2078 0
1945 2076 2078 0
4797 5061 937 0
6291 4469 6292 0
5029 5028 6293 0
91 253 4741 0
5204 5189 6294 0
5189 6295 6294 0
5189 5204 5203 0
558 559 2791 0
2791 559 2792 0
6149 6296 4824 0
6297 6298 5885 0
6299 6300 6301 0
6299 6301 6302 0
6303 6304 6305 0
393 107 109 0
6306 6307 6308 0
6257 6111 6309 0
6310 5466 6311 0
447 449 6312 0
3579 6313 4509 0
6314 6315 6316 0
4949 1625 6317 0
657 6318 1266 0
657 4595 6318 0
6319 6320 6321 0
6322 6320 6319 0
4944 1204 2940 0
6323 5307 6324 0
4664 2774 4936 0
6325 6326 6327 0
6328 3578 4357 0
6329 6330 6331 0
6332 6333 6334 0
6335 3614 6336 0
3539 5544 4910 0
5251 6337 3193 0
6338 6339 6340 0
6341 6342 6343 0
6344 6345 6346 0
6344 6347 6345 0
6348 6349 5876 0
4839 6350 6351 0
4840 6350 4839 0
6053 6313 3579 0
6053 3579 6352 0
5516 5276 6353 0
366 3844 5156 0
3844 6354 5156 0
1797 6355 176 0
3152 3154 4236 0
3080 3081 2263 0
1599 1598 3486 0
6234 6236 6356 0
1134 6357 2420 0
6358 6359 6360 0
6361 5157 5492 0
6362 5665 6363 0
6364 6365 6366 0
6367 6365 6364 0
2148 1698 6342 0
6368 6369 2876 0
6370 6371 4353 0
6371 6372 4353 0
3902 579 578 0
6373 6374 4168 0
26 25 337 0
6375 2751 6376 0
6377 6375 6376 0
3655 6378 4092 0
6379 5184 5183 0
518 1600 992 0
1395 1708 739 0
6322 6380 6320 0
4333 4300 4314 0
6381 6163 6162 0
6192 5217 1670 0
5217 6382 1670 0
6383 5283 6384 0
6383 6384 6385 0
6386 6387 6388 0
6389 6390 1049 0
3491 4571 5089 0
6391 6392 6393 0
6394 4098 6395 0
6396 5619 5618 0
6397 3541 4812 0
5155 6398 6399 0
6400 5155 6399 0
6401 6402 6403 0
2796 6404 5950 0
6405 6406 6407 0
4298 6408 198 0
1725 3619 1613 0
6409 2401 4839 0
3949 5050 6410 0
6411 6134 6412 0
5553 2721 6413 0
6414 6415 6416 0
4893 4140 6417 0
6418 6419 5873 0
6420 6421 6422 0
6423 6424 6425 0
6426 6427 6428 0
6429 6430 1551 0
974 4710 6431 0
3304 1085 6432 0
4097 3304 6432 0
6433 4810 3824 0
6434 6435 6436 0
1169 5936 6437 0
495 3408 6229 0
3444 4788 3054 0
4597 5137 6318 0
5840 2544 5136 0
6438 4393 4853 0
6439 6440 6441 0
6442 6443 1817 0
6444 5728 6445 0
6445 5728 5727 0
6446 5469 6447 0
6448 6449 6450 0
6449 2914 6450 0
207 209 6451 0
718 3069 225 0
5179 5181 6134 0
6452 6453 6410 0
6454 6455 6456 0
6457 6287 1620 0
2401 6458 4840 0
4015 4014 5488 0
6459 5572 5574 0
5030 6460 2718 0
6461 2244 6462 0
46 6463 4522 0
1725 1726 6040 0
595 3906 596 0
6464 6465 6466 0
6467 6468 6469 0
6470 6471 6472 0
5716 1235 5445 0
4400 6473 6474 0
4182 4436 4209 0
4846 4410 4679 0
6475 5166 6476 0
6477 5166 6475 0
5488 5249 5964 0
4333 4971 4484 0
6478 6479 3184 0
6337 6480 3193 0
6481 5726 6482 0
6483 4122 6484 0
6485 6486 6487 0
3655 3654 6378 0
4891 1359 6488 0
6489 3239 4996 0
3977 2506 3115 0
5269 2506 3977 0
5324 6490 6491 0
6492 4632 4487 0
2037 4632 6492 0
4026 4028 6493 0
5193 1833 1948 0
6494 6495 4168 0
4101 6496 6497 0
2131 6498 2130 0
6499 6500 6501 0
6502 6503 6504 0
6505 4057 5236 0
6506 5080 5079 0
6507 6506 5079 0
5324 6491 6508 0
4333 3286 4300 0
6509 5415 6060 0
6510 6511 6512 0
594 1082 6513 0
4278 5153 6514 0
6515 6516 1797 0
6517 6518 6519 0
3694 118 5416 0
6178 6177 6520 0
6521 6522 1378 0
6523 6524 6525 0
6526 6527 6528 0
4993 5302 6529 0
4032 6530 1279 0
4032 6531 6532 0
6533 6534 6535 0
500 4376 282 0
6536 6537 6538 0
5106 5509 5107 0
2902 6539 6540 0
2902 6540 6541 0
6542 6543 3848 0
6502 6504 6544 0
122 4097 3637 0
4693 3339 5295 0
6545 6546 6547 0
2603 2007 2009 0
5325 5324 6548 0
5324 6508 6548 0
6549 4861 6550 0
4861 4860 6550 0
5033 687 5034 0
4349 6551 2734 0
6552 6553 6554 0
2457 6555 4592 0
5840 5136 6289 0
6556 5840 6289 0
480 6557 96 0
96 6557 2733 0
1866 4326 3367 0
6558 5061 923 0
2527 6559 6560 0
6561 5916 6562 0
4440 6563 6564 0
6565 4440 6564 0
6460 4665 2718 0
2259 6566 6567 0
6566 5520 6567 0
1064 1861 767 0
1064 767 766 0
6568 2239 5326 0
2898 2900 2176 0
5076 3079 5009 0
6569 2612 2614 0
4711 3720 4614 0
5288 2970 5289 0
2989 2388 2387 0
1474 2989 2387 0
6570 5133 1157 0
6570 6571 5133 0
2053 1376 1375 0
6276 5198 2887 0
6572 817 4472 0
818 817 6572 0
2636 6573 5628 0
6574 6575 6576 0
272 4206 3894 0
6061 4828 4560 0
3527 1289 1710 0
3694 6577 118 0
6578 4614 3719 0
6578 3719 5832 0
4547 6579 3702 0
4317 3034 1621 0
5276 4664 5989 0
4712 3718 3720 0
3860 6457 4472 0
5166 3988 6476 0
6580 6581 6582 0
2544 2448 5136 0
3552 2037 6492 0
1914 6226 6583 0
5818 5511 5076 0
6483 5658 60 0
6584 682 499 0
3895 3186 5093 0
5026 6585 1161 0
6406 6586 6407 0
2345 6587 6588 0
4252 6589 3987 0
3292 6590 6591 0
6592 6593 6594 0
6406 6405 6595 0
4005 4933 6596 0
6597 6598 2336 0
1030 1029 4196 0
6599 6600 6601 0
2280 5508 3887 0
700 2280 3887 0
6602 6385 6603 0
6604 2814 1233 0
6604 1233 5717 0
5566 5565 6027 0
3146 3621 3532 0
6474 6473 5973 0
6379 6605 5184 0
6605 6606 5184 0
5883 6211 5648 0
6607 6608 6609 0
4174 6580 5402 0
6610 808 4691 0
6611 6612 760 0
5659 5661 6613 0
6614 6615 6616 0
6614 6616 6617 0
5981 6618 6619 0
6022 2234 6388 0
5104 6620 6621 0
2269 5479 4154 0
6557 1043 5071 0
6622 3425 4228 0
6623 6624 5189 0
321 6625 609 0
6626 6627 6008 0
5128 3825 1244 0
5208 3293 3294 0
3518 5208 3294 0
6628 6629 6630 0
2990 2143 4414 0
223 6631 3670 0
6632 6633 6448 0
6634 6635 6636 0
6635 6637 6636 0
6638 6639 6640 0
6641 6638 6640 0
958 6642 1029 0
6643 6644 6645 0
6643 6646 6644 0
5100 5447 5098 0
6279 1791 3778 0
6647 6314 6648 0
6623 5189 3153 0
6649 6650 6651 0
5153 4076 6652 0
1683 924 2282 0
4028 1305 3024 0
6653 6654 5256 0
6655 5291 5290 0
4297 201 6408 0
772 771 1684 0
5415 5417 5422 0
6656 6657 4985 0
6528 4853 4852 0
6658 6659 6660 0
5358 6091 6661 0
2888 6662 6094 0
6663 1863 6664 0
6314 6665 6666 0
5588 6667 6668 0
5588 6668 6669 0
5051 5380 1021 0
4854 6670 6671 0
4854 6672 6670 0
6673 6674 6082 0
4847 6675 5419 0
1202 6031 1441 0
6676 6677 6678 0
6679 6680 4305 0
1283 684 6681 0
2662 3286 4483 0
5354 2832 5355 0
2686 6682 6683 0
2686 6683 3812 0
1564 5463 1565 0
6684 6685 6330 0
6686 6687 6427 0
582 6688 3050 0
5327 2083 5502 0
3425 3424 4228 0
3859 2777 2776 0
2901 2902 6541 0
2901 6541 4539 0
6689 4470 6690 0
3078 2728 6691 0
6692 3756 5249 0
6692 4183 3756 0
5997 6693 2933 0
6694 6695 6628 0
2800 2799 160 0
2914 6696 6697 0
568 570 6698 0
6188 6699 6700 0
6701 6702 6261 0
6703 5753 5755 0
6704 6705 6706 0
6707 6708 1425 0
1424 6707 1425 0
6041 1999 4823 0
6709 6710 6711 0
6712 6713 5965 0
6714 6715 6205 0
6205 6715 5374 0
2288 1372 2497 0
6716 1206 3167 0
6716 4796 1206 0
6717 499 2936 0
3074 4132 4031 0
4132 4032 4031 0
6718 2761 6719 0
6720 6718 6719 0
3347 5857 6721 0
2667 6722 4909 0
5277 5297 4998 0
1726 1615 5849 0
6723 1726 5849 0
6724 155 6725 0
6726 6727 731 0
6728 6729 6730 0
6731 5953 5952 0
6732 4297 4299 0
6564 6733 6734 0
6735 6736 6737 0
5163 1638 642 0
4466 6738 4014 0
1024 1616 2605 0
14 5515 1963 0
4952 4263 5143 0
6739 585 6681 0
6740 3752 2970 0
4206 5699 3894 0
6741 4180 1625 0
6742 6743 6744 0
6745 2304 3557 0
5184 6746 5185 0
5580 6747 6326 0
5580 6748 6747 0
6749 6750 6751 0
855 3485 6752 0
591 4796 6716 0
6753 6490 1376 0
5275 4987 699 0
4654 6754 1477 0
1477 6755 4655 0
6756 3263 1211 0
6642 958 175 0
4659 4658 6757 0
1012 6758 504 0
792 6759 6760 0
2093 4908 4986 0
2093 2090 4908 0
6761 6762 6763 0
3396 6268 5593 0
205 6764 5083 0
6765 5592 6631 0
6765 5590 5592 0
5009 5011 4787 0
5077 5009 4787 0
1683 925 924 0
6766 6767 6768 0
6769 2917 5528 0
6770 6771 6772 0
5051 6773 5052 0
6774 5633 5636 0
1163 4701 1164 0
6775 6776 6777 0
1189 1190 6778 0
3166 2713 4685 0
5368 5556 2216 0
5556 6779 2216 0
6780 6092 6091 0
6781 3360 2290 0
6781 5817 3360 0
718 225 716 0
34 5147 5395 0
6782 6783 6784 0
1604 4640 2498 0
3545 244 5057 0
6785 6786 982 0
4406 2706 245 0
50 49 5331 0
6787 6788 729 0
6789 6790 6791 0
5857 3349 5858 0
6792 5124 6793 0
1883 4933 4005 0
6794 2494 5519 0
6314 6795 6315 0
6796 2997 6797 0
6341 6798 6799 0
6800 6801 6802 0
5095 6803 6555 0
2457 5095 6555 0
2077 2672 3978 0
6297 5715 6298 0
5157 2550 2549 0
4353 6372 6804 0
5099 263 265 0
6805 4297 6732 0
6806 6050 6807 0
6171 2042 3686 0
6808 3298 3985 0
6808 3985 592 0
4212 6809 6810 0
6811 6812 4431 0
6813 6814 6815 0
5096 6813 6815 0
2740 6816 6777 0
2740 6777 6776 0
6096 5295 6817 0
1190 1188 6818 0
6819 6820 6821 0
6803 6186 540 0
6024 5426 5192 0
6822 593 6595 0
5832 4974 3840 0
5719 1754 1756 0
5720 5719 1756 0
5766 5549 6823 0
6824 4591 6825 0
3892 5044 5117 0
5637 5044 3892 0
6826 6827 6828 0
6826 6829 6827 0
3455 925 2170 0
5287 6830 5288 0
6831 6418 6832 0
1191 1192 1400 0
5548 5793 6437 0
2767 2766 4797 0
3933 6833 4474 0
4474 4687 4475 0
5732 6834 6835 0
3973 2008 1614 0
6836 6361 5492 0
6837 6602 1121 0
6838 6839 6840 0
4646 6244 6841 0
4646 6841 6842 0
6843 6844 6845 0
6843 6845 6846 0
6387 6022 6388 0
6117 5708 5142 0
486 6847 487 0
2918 6848 2915 0
1907 3448 6849 0
4475 6850 6851 0
3933 4475 6851 0
3456 2462 6852 0
6852 2462 919 0
6853 6294 6295 0
1121 6854 1122 0
4485 6241 6855 0
6034 6856 6033 0
6628 6695 6857 0
2767 4797 6858 0
4556 4555 5461 0
6859 6860 6861 0
4979 6862 5318 0
1210 1390 6863 0
6864 747 6865 0
106 105 5945 0
3192 5346 3362 0
4699 3918 4700 0
4700 3918 6866 0
5479 5481 4154 0
6867 6868 1773 0
32 6867 1773 0
4568 4567 5191 0
6869 6870 6871 0
6870 6872 6871 0
4027 1306 1305 0
6873 2805 2807 0
6874 6875 2887 0
2887 6875 6276 0
6876 6877 4570 0
6878 4677 5258 0
6879 6880 6265 0
6881 6879 6265 0
4467 6293 5609 0
6882 1904 6883 0
5061 4797 924 0
6884 6885 6886 0
6887 6885 6884 0
1889 6888 6889 0
6890 6891 6892 0
3358 6893 3022 0
6894 5615 5616 0
4159 5233 6895 0
6243 6078 717 0
6896 4906 6897 0
6898 6899 2396 0
6900 2819 6901 0
6902 6903 6904 0
3398 6905 2156 0
6905 2155 2156 0
3326 4002 3327 0
6906 912 911 0
976 1962 6907 0
6908 6909 6910 0
4064 6911 4065 0
4586 6911 4064 0
6912 6778 1190 0
6913 4130 2253 0
6443 6914 1817 0
1817 6914 2140 0
6915 6916 4156 0
6917 4677 6878 0
4678 4677 6917 0
2613 6396 5618 0
6918 6919 6920 0
6921 3326 3328 0
6922 6130 6923 0
6924 6925 4188 0
1 6926 6927 0
5075 5077 5254 0
5016 4762 6928 0
5044 1931 2065 0
6794 6929 6930 0
6931 5695 6932 0
1198 3707 1329 0
4686 6286 4687 0
3495 6933 4695 0
6934 6630 6629 0
6935 6936 6937 0
6936 6938 6937 0
6939 2001 6940 0
6941 6942 6943 0
6944 3234 5321 0
5006 6945 6946 0
4940 4118 1307 0
6947 6745 6948 0
6949 6950 3382 0
6951 3810 6952 0
6953 1248 2190 0
50 5331 6954 0
6955 1490 4769 0
6956 6957 6958 0
6959 6957 6956 0
1877 6960 3788 0
5647 6956 6958 0
3348 2456 5220 0
6961 6962 6963 0
6818 6912 1190 0
6044 4645 6045 0
3826 3825 6964 0
6965 6330 6329 0
6966 6967 4883 0
4883 6967 4881 0
6968 6969 5132 0
5132 6969 6970 0
6971 1451 2974 0
6971 3696 1451 0
683 1284 6972 0
6973 6861 6974 0
6931 6975 6976 0
6977 6978 6979 0
6977 6979 6980 0
6955 4769 5149 0
6955 5149 5219 0
6981 6982 5409 0
3025 6983 6984 0
1166 6062 832 0
6333 6985 6986 0
6987 6988 6989 0
6990 4623 5426 0
329 1857 1859 0
2190 2892 2189 0
5057 2189 2892 0
2268 379 4373 0
379 378 4373 0
6991 6992 6993 0
6994 5599 6995 0
6049 6046 6996 0
6997 6049 6996 0
6889 1887 1889 0
6998 2973 6687 0
6999 5761 5762 0
763 7000 1940 0
932 6988 933 0
784 6850 4687 0
4154 5481 6926 0
7001 524 7002 0
7003 7004 7005 0
1424 3529 7006 0
7007 7008 6596 0
5580 5579 6748 0
3407 6287 6457 0
3406 6287 3407 0
7009 7010 6559 0
4555 6567 5461 0
714 3105 715 0
7011 7012 7013 0
7013 7012 7014 0
7015 7016 7017 0
7018 7019 7020 0
7021 7022 7023 0
1673 788 1674 0
6245 5457 6143 0
7024 7025 7026 0
663 664 482 0
6649 7027 6650 0
6240 5110 5109 0
6353 4803 985 0
4789 3656 4124 0
5574 5573 5129 0
395 397 7028 0
6051 7029 7030 0
5305 7031 3490 0
7032 4760 4785 0
6201 7033 3986 0
6620 5914 7034 0
739 741 7035 0
7036 6591 7037 0
6902 6904 7038 0
7039 6902 7038 0
1670 1669 4964 0
7040 7041 7042 0
3091 3928 7043 0
4938 1664 392 0
5719 3484 1754 0
1287 484 6147 0
3161 4985 4841 0
1484 2895 1481 0
518 517 1600 0
6816 24 6777 0
76 1505 2083 0
5948 7044 6146 0
5418 3872 7045 0
6642 3084 1029 0
6642 3082 3084 0
7046 7047 7048 0
7049 7050 7051 0
2135 2499 2500 0
7052 6595 593 0
36 4768 1490 0
4626 7053 3173 0
6789 7054 7055 0
7056 5035 1953 0
7057 4712 5127 0
7058 7059 5584 0
5583 7058 5584 0
6107 5349 6108 0
4121 4120 5067 0
6619 5221 7060 0
3578 4431 6352 0
7061 7062 3309 0
937 5061 168 0
3320 3319 4437 0
6787 3955 2957 0
3412 7026 7025 0
5264 7063 7064 0
3850 4401 7065 0
7066 7067 7068 0
7068 7067 7069 0
4597 4596 7070 0
2333 1663 1664 0
5800 5803 7071 0
7072 541 4995 0
7073 2004 598 0
7074 7075 7076 0
7077 1889 7078 0
7077 6888 1889 0
3296 4337 3350 0
7079 7080 6746 0
4703 4682 4684 0
6554 7081 7082 0
6990 3856 4303 0
4623 6990 4303 0
7083 4680 5486 0
6927 2 1 0
3946 1331 4851 0
3466 4433 5762 0
2430 7084 2318 0
7085 7086 7080 0
7061 3309 1748 0
5262 820 422 0
7087 7088 7089 0
623 5068 5070 0
732 821 730 0
887 7090 7091 0
643 3807 641 0
3145 4682 3146 0
5988 7092 6456 0
3389 812 2496 0
9 5148 7 0
7093 4725 243 0
7094 7095 7096 0
7097 5158 7098 0
7098 5158 4947 0
7099 7100 5805 0
7101 7102 6761 0
7103 7104 7105 0
7106 7107 7108 0
5634 7109 4018 0
5724 7110 7111 0
5139 3351 3350 0
1192 677 4372 0
4927 7112 88 0
4367 7072 5881 0
6418 6831 6419 0
5068 6101 5069 0
3245 7113 1427 0
7114 6925 6923 0
700 3887 2775 0
7115 7116 7117 0
7118 6338 6340 0
1891 3862 1892 0
5699 3187 3894 0
5072 3263 7119 0
1043 7120 1044 0
7121 7122 6232 0
1515 6572 1620 0
5365 7123 6626 0
6682 7124 6683 0
7125 7126 7127 0
7128 7129 7130 0
7131 5245 7132 0
6323 7133 7134 0
7134 7133 4723 0
4644 912 6236 0
6178 6520 4864 0
7135 7136 7137 0
7138 1616 7139 0
5130 5195 4794 0
5138 7140 5139 0
7141 6744 6743 0
7142 5002 156 0
4954 3768 3770 0
4483 4333 4484 0
5233 7143 5637 0
2977 2 2555 0
7144 2919 7145 0
7098 4947 7059 0
7098 7059 7058 0
7012 7146 1887 0
3788 3787 1877 0
2724 581 580 0
1458 7147 1456 0
7148 7149 6819 0
7150 5030 5403 0
7151 7152 7153 0
7154 3949 6410 0
4175 4395 7155 0
7139 7156 7157 0
7158 5074 7159 0
7160 5671 5673 0
7005 867 866 0
867 7005 7161 0
7162 3421 7141 0
740 739 1708 0
7162 7163 853 0
7163 3767 853 0
4237 5825 5824 0
7164 1886 4848 0
3924 5445 1235 0
540 7165 4135 0
7166 7167 7168 0
7166 7168 7169 0
7170 6281 7171 0
7172 7173 7140 0
7174 7175 7176 0
7177 6934 7178 0
5544 5486 5485 0
7179 7180 7181 0
4058 4057 7182 0
7183 7184 7185 0
3280 7186 6018 0
2679 835 833 0
4783 4655 7187 0
6248 6249 7188 0
7084 2024 2318 0
7189 7190 1553 0
4297 6408 4298 0
7191 7192 7193 0
7194 7195 2969 0
7196 7197 7198 0
6699 7197 7196 0
6893 7199 7200 0
7201 7202 7203 0
7204 7205 7206 0
7207 7208 7209 0
3859 3027 2777 0
3859 3858 3027 0
7210 7211 7212 0
6997 5872 5870 0
6997 5870 7213 0
7214 2184 3323 0
7215 5575 7216 0
4738 1031 4739 0
7217 7218 7219 0
3797 7105 7220 0
3797 7220 7221 0
4275 2368 5568 0
7222 7223 2482 0
5487 5964 6263 0
5487 6263 6313 0
7224 3238 6694 0
5586 5716 5428 0
6897 4903 7225 0
7226 7227 4751 0
5890 4751 7227 0
6096 6817 780 0
6188 6723 6699 0
7228 6800 7229 0
7228 6801 6800 0
6047 6049 7213 0
7230 7231 7232 0
7222 7233 7223 0
5818 5510 5511 0
2263 6566 2259 0
2080 1394 1393 0
3433 3435 2770 0
4020 4019 4932 0
7234 6809 7235 0
707 7236 705 0
717 6078 718 0
1289 3527 1290 0
1667 7237 5647 0
7237 5645 5647 0
7238 4259 2715 0
7239 7240 7241 0
4132 3693 3695 0
7242 3281 7207 0
7243 2914 6697 0
3323 1688 7244 0
7245 2230 4047 0
5198 6277 3622 0
2408 2407 2649 0
6286 7246 785 0
4686 7246 6286 0
3463 7247 7248 0
6645 6644 2893 0
7249 2505 2855 0
5511 3081 3079 0
7250 3081 5511 0
6454 7251 6455 0
1169 5819 5936 0
7252 7253 7254 0
7255 7256 4078 0
7257 3013 3015 0
7258 2896 7259 0
7260 7261 7262 0
2040 7263 2041 0
7264 7265 7266 0
7266 7265 7267 0
7268 1408 7269 0
1409 1408 7268 0
6240 7270 7271 0
7272 7273 1128 0
76 3854 1505 0
4333 4483 3286 0
4048 7274 4049 0
2230 7274 4048 0
6668 3639 7275 0
5009 973 5010 0
3070 973 5009 0
7276 7277 7278 0
5156 5302 4993 0
5300 5302 5156 0
6493 4028 4166 0
6366 5856 7279 0
7280 4678 6190 0
7281 7282 7283 0
7284 4545 4544 0
7285 1920 7286 0
7287 5150 1011 0
6896 2580 2577 0
6896 2577 7288 0
2868 7289 7290 0
4914 4916 7291 0
4914 7291 7292 0
6254 7293 6255 0
6334 6333 7294 0
7295 7296 7297 0
1128 7298 7272 0
2244 7299 7300 0
6461 7299 2244 0
5364 7123 5365 0
7301 3936 4585 0
1947 2603 3973 0
6423 4536 6424 0
7302 7303 7304 0
3114 7305 3112 0
1808 7306 4338 0
7307 7308 7309 0
7310 5851 5850 0
5479 7311 7312 0
1201 1079 7313 0
7314 7315 7316 0
7317 7314 7316 0
3986 7033 4025 0
7318 7319 1580 0
7320 7319 7318 0
1987 6983 3025 0
6298 7321 7322 0
7321 7323 7322 0
7324 1911 2072 0
7325 7326 2393 0
829 7327 3416 0
5220 6824 3348 0
7328 7329 1668 0
7330 6411 6412 0
7331 7330 6412 0
2915 6848 6210 0
2916 2915 6210 0
6929 2821 5188 0
7332 1854 1855 0
2735 7333 7334 0
317 319 3854 0
319 2252 3854 0
3990 7335 3992 0
3990 4784 7335 0
1702 7336 6013 0
7337 7273 7272 0
2216 4855 5368 0
7338 7339 7340 0
7341 7342 7343 0
6516 7344 6355 0
5273 7345 7346 0
7347 6321 6320 0
7348 928 7349 0
7348 7349 7350 0
264 6370 639 0
6745 126 128 0
5961 6059 5032 0
7351 4415 4417 0
3220 7352 3633 0
4262 4264 4831 0
7353 7354 7355 0
5429 7356 7357 0
7358 5429 7357 0
6807 6050 2962 0
7315 6116 6115 0
7315 6115 7316 0
6764 5081 5083 0
7359 7360 7361 0
6646 7362 5323 0
6185 6186 4831 0
4964 7363 4041 0
4313 5075 4314 0
2670 7364 4710 0
3347 3349 5857 0
7365 7366 2203 0
1429 653 1427 0
7367 7368 7306 0
7369 7165 539 0
7370 7371 7372 0
5465 1532 7373 0
6478 5871 6479 0
3838 7374 3537 0
7375 7376 7377 0
5238 7316 5239 0
7378 7379 7380 0
7381 5582 7382 0
4474 6833 4090 0
5716 5586 5717 0
3606 3260 3259 0
850 3633 6855 0
852 850 6855 0
6992 7383 7384 0
7385 3418 3051 0
3574 6452 3575 0
7386 7387 7388 0
2526 2525 6606 0
7389 5751 7390 0
7391 7392 4432 0
5428 5716 5445 0
4848 4909 7164 0
4615 4614 6578 0
7393 2965 7394 0
7395 7393 7394 0
7054 6789 6791 0
6710 6709 6467 0
7396 5347 6107 0
7397 5347 7396 0
5775 5777 7398 0
37 2068 7399 0
6515 7164 6722 0
1081 7400 1082 0
7401 7402 5833 0
7402 5834 5833 0
5673 7403 7160 0
7404 7405 7406 0
6263 3166 4685 0
7407 2234 6021 0
3146 4702 3621 0
2268 5332 6155 0
5658 6483 5561 0
4005 7008 1188 0
6236 912 6906 0
4710 7364 6431 0
3051 5420 2721 0
3418 5420 3051 0
4448 1840 1842 0
7408 1486 6542 0
952 954 7409 0
4387 3759 7410 0
7411 7412 7413 0
4094 2503 7414 0
1041 6002 4302 0
4119 2755 2754 0
237 2755 4119 0
7415 7416 4625 0
5209 7386 7388 0
5210 5209 7388 0
7417 5323 7418 0
3457 3456 7419 0
6406 3492 6586 0
4906 6896 3432 0
2498 2500 1604 0
5361 5363 1181 0
5328 925 1683 0
7420 4933 1883 0
6888 7421 7014 0
7014 7421 7013 0
6836 5108 5110 0
2298 4994 7422 0
7423 7424 7425 0
7426 7427 7428 0
7429 1211 1210 0
7430 7431 7432 0
5147 5541 1684 0
5091 6157 7433 0
5839 3405 5500 0
5839 3406 3405 0
4797 937 6858 0
5646 5645 7199 0
5646 7199 7434 0
1009 4768 5395 0
584 586 7435 0
6081 7436 7330 0
7330 7436 6411 0
2001 2000 6940 0
2124 2123 4181 0
4181 2123 7437 0
2879 7438 6368 0
7438 3204 6368 0
843 842 4856 0
4026 7439 4027 0
35 34 5395 0
6242 3120 3423 0
1749 5222 1750 0
4417 7431 7430 0
4344 4346 7032 0
3424 4290 4227 0
3622 6277 4047 0
7432 7440 2358 0
7431 7440 7432 0
7431 7441 7440 0
5480 4610 6029 0
7312 4610 5480 0
7442 3500 6577 0
113 2901 4539 0
7409 954 7443 0
6249 5808 7444 0
6435 7445 4766 0
3592 7445 6435 0
855 2770 4460 0
5284 5283 5875 0
4746 4756 7446 0
7447 7341 7448 0
7449 6002 1041 0
7450 6959 7451 0
4918 7452 7453 0
5499 6534 5366 0
6777 24 4407 0
5541 34 33 0
7454 5799 7455 0
5174 7456 5173 0
6678 2159 7457 0
2952 982 984 0
7458 5730 5414 0
7459 6337 7460 0
7461 7462 7463 0
4770 7030 5350 0
6968 4975 6969 0
6968 5567 4975 0
3725 4488 7464 0
7417 1885 3059 0
6160 6159 5360 0
2764 4027 7439 0
4483 7352 2529 0
2529 7352 2530 0
6589 7465 3987 0
7466 5174 5068 0
623 7466 5068 0
7467 7468 6268 0
7469 3200 1277 0
7470 7031 5305 0
6553 6552 7471 0
7472 6242 4175 0
7473 6509 6060 0
7474 7475 7476 0
2772 7477 7478 0
7479 7480 7481 0
6872 7482 7483 0
7135 7137 7484 0
7485 7486 2610 0
6062 2680 832 0
11 2288 12 0
7487 7488 7489 0
382 5843 5845 0
1185 7490 261 0
1184 7490 1185 0
3734 6990 5426 0
7491 3534 6407 0
6407 3534 6191 0
7492 3027 7493 0
2078 2077 4405 0
7494 2654 391 0
2543 7495 3441 0
7042 7496 7497 0
7093 5987 4725 0
1795 6381 6162 0
2855 7498 5679 0
7249 2855 5679 0
7499 7500 7501 0
3175 4897 4171 0
4509 591 3282 0
1684 5541 772 0
4477 7502 7503 0
3237 7504 6694 0
7505 383 7506 0
7506 383 7507 0
7508 7509 7269 0
7510 1814 7511 0
7512 7488 7487 0
3050 7513 2417 0
4840 6000 5999 0
7514 7515 5950 0
2970 5491 5289 0
685 684 1283 0
4750 7516 4916 0
4915 4750 4916 0
7517 7518 7340 0
7339 7517 7340 0
7519 7126 6664 0
7127 7126 7519 0
4911 3757 1716 0
2667 4909 6982 0
5409 2998 7520 0
7521 7522 7523 0
7523 7522 7251 0
3654 4101 6378 0
3654 4102 4101 0
7524 7525 2783 0
4926 7525 7524 0
7526 7527 7528 0
3122 3124 5666 0
7529 7530 6304 0
7531 7529 6304 0
6059 7532 5032 0
7147 3448 3447 0
7147 3447 7031 0
7533 6234 6356 0
1517 7534 1515 0
7464 7534 1517 0
7535 7119 6756 0
6293 5028 7536 0
4467 5029 6293 0
2110 1131 846 0
7385 3051 6584 0
5400 5401 5135 0
7537 7538 7539 0
7540 5559 1323 0
2483 7223 7541 0
7542 3714 7543 0
7542 3712 3714 0
5297 6182 5240 0
1599 1745 5502 0
486 7544 7545 0
2728 5112 6691 0
2933 5301 2934 0
6691 3492 3078 0
1687 1686 5617 0
7546 7547 7548 0
7548 7547 7549 0
6405 7550 6595 0
7551 4979 5318 0
6151 2771 2773 0
5851 7310 5852 0
5535 5150 7552 0
7552 5150 7287 0
6154 6155 3334 0
6780 7553 6092 0
7554 7555 7240 0
7556 3602 7557 0
7558 7559 7560 0
5857 7561 6721 0
6799 7562 7563 0
7564 7565 7566 0
5345 436 4760 0
4950 7567 7568 0
7191 4950 7568 0
7569 4471 7570 0
6536 7571 6537 0
7340 7572 7338 0
7573 7574 7575 0
4716 4490 7576 0
4716 7576 7577 0
5532 7578 5737 0
7579 7580 6141 0
1230 7581 7582 0
7583 4146 5443 0
3334 5333 431 0
6628 7584 6629 0
7585 7586 7587 0
4975 4972 6969 0
5077 4787 5254 0
6623 3153 6159 0
6158 6623 6159 0
2269 7311 5479 0
3220 2530 7352 0
7588 7589 5505 0
129 7590 5844 0
5667 5873 6419 0
6508 7591 6548 0
7592 7593 7594 0
7592 7595 7593 0
6182 5822 5240 0
7596 7597 7598 0
7599 7600 7601 0
7602 7603 7604 0
2171 835 2679 0
5427 5585 5428 0
890 1599 5502 0
7257 5018 3013 0
7605 7246 4686 0
366 365 3844 0
1985 3025 3026 0
6919 7606 7607 0
2529 2662 4483 0
167 7608 1440 0
2060 2062 6091 0
2167 7609 7610 0
7611 7612 7118 0
7613 6319 7614 0
3998 5066 3997 0
4571 4941 5089 0
5916 6561 7615 0
7616 7617 3011 0
7618 2968 6259 0
6114 2284 2452 0
4994 7619 7620 0
6128 6130 7621 0
6484 4122 1599 0
7622 1842 3341 0
2865 7623 4025 0
2493 5839 5501 0
7624 6477 7466 0
4296 3546 2731 0
7625 7626 7297 0
2170 925 971 0
7627 4720 4719 0
3694 5416 3695 0
7628 7629 7630 0
7444 7628 7630 0
5455 7631 7632 0
7631 7633 7632 0
7634 7635 6725 0
7636 7637 7555 0
5222 7638 7639 0
4645 4647 7640 0
4647 5035 7640 0
7641 7642 151 0
6132 7643 7644 0
6626 6778 6627 0
237 2278 2755 0
7645 7646 7647 0
7645 7648 7646 0
7649 7650 1250 0
7651 47 7652 0
933 7653 934 0
1092 1880 4482 0
6057 5961 7654 0
7655 7027 7064 0
7656 7657 5310 0
5310 7657 7658 0
2459 7659 4992 0
7417 3059 5323 0
1532 5465 1533 0
4396 3360 5817 0
602 4055 1245 0
1517 1516 3725 0
2907 2025 7660 0
1635 3380 3450 0
6896 6897 2580 0
6385 7661 6603 0
2918 2917 7662 0
4769 1009 1011 0
4769 4768 1009 0
5960 3099 3098 0
6983 1987 1986 0
7663 6714 6205 0
3108 7664 7665 0
7666 7667 7668 0
