#!ascii version of surfaces/CC00063AN06/label/lh+rh.surf+labels-reduced.vtk
21050 42092
237 9553 1383 0
1383 9553 2224 0
1383 2224 2116 0
8825 8898 9487 0
8825 9487 8828 0
9491 7300 9554 0
9555 9490 9491 0
9554 9555 9491 0
9556 9487 9490 0
9556 8828 9487 0
9556 9490 9555 0
8826 8828 9556 0
8827 8826 9556 0
8827 9556 8833 0
9500 9501 9517 0
7158 7157 9500 0
9557 9500 9517 0
9557 9517 9558 0
7158 9500 9557 0
7158 9557 9559 0
9557 7226 9559 0
9559 7226 2624 0
9560 9559 2624 0
9561 8833 9562 0
8833 9556 9555 0
9562 8833 9555 0
9563 9555 9554 0
9554 7300 3749 0
9563 9554 3749 0
9561 9562 9564 0
5978 9564 3748 0
9562 9555 9563 0
3748 9564 9562 0
3748 9562 9563 0
3749 3748 9563 0
5978 5979 7158 0
9564 5978 7158 0
9564 7158 9559 0
9560 9564 9559 0
8833 9561 8834 0
8834 9561 9565 0
9565 9561 9566 0
8834 9565 6973 0
9565 9566 6973 0
9564 9560 9566 0
9560 9567 9568 0
9569 9560 9568 0
9566 9560 9569 0
9570 9569 9568 0
9571 9569 9570 0
4160 9571 9570 0
8835 6973 9572 0
6973 9566 9571 0
9572 6973 9571 0
9566 9561 9564 0
9571 9566 9569 0
9572 9571 4160 0
164 9572 4160 0
8835 9572 164 0
163 8835 164 0
9516 9533 9517 0
9517 9533 9573 0
9533 9534 9574 0
9573 9533 9574 0
3353 9539 3354 0
3353 3932 713 0
9575 9574 6980 0
9574 9534 3353 0
6980 9574 3353 0
9576 6980 713 0
9575 6980 9576 0
9575 9576 7395 0
3354 4088 4621 0
7261 4088 4090 0
4621 7181 2321 0
9549 9577 9578 0
9552 237 9577 0
9577 9549 9552 0
9577 237 236 0
9578 9577 8720 0
8720 9577 236 0
4090 4089 9579 0
9579 4089 9578 0
9578 4089 9549 0
3153 7181 4090 0
3153 4090 9579 0
8720 9579 9578 0
9579 8720 3127 0
3153 9579 3127 0
4461 7181 3128 0
3128 7181 3153 0
6961 7395 6962 0
6962 7395 9576 0
6962 9576 9580 0
9581 9576 713 0
9581 713 712 0
9580 9576 9581 0
9580 9581 6211 0
9580 6211 6893 0
6211 9581 712 0
6962 9580 6893 0
6213 6840 6839 0
6760 6893 8719 0
6839 6893 6211 0
6839 8719 6893 0
6760 8719 6397 0
6839 8718 8719 0
6397 8719 8717 0
5463 164 4159 0
4159 164 4160 0
9570 9568 9582 0
9582 9568 9567 0
9582 9567 7083 0
9583 9582 7083 0
4161 4160 9570 0
6704 4161 9583 0
9583 4161 9570 0
9583 9570 9582 0
6704 9583 6929 0
6929 9583 7083 0
4162 6704 6665 0
6665 6704 6905 0
6905 6704 6929 0
9567 9560 2624 0
9567 2624 1994 0
2625 2624 7226 0
9558 9517 9573 0
9575 9558 9573 0
9575 9573 9574 0
7226 9557 9558 0
9575 7226 9558 0
7106 7226 9575 0
7179 7106 9575 0
7179 9575 7395 0
1994 7083 9567 0
6771 7083 1993 0
6460 6771 6898 0
6760 4022 6892 0
6397 4023 6760 0
5460 4162 6665 0
5460 5078 4162 0
8715 6654 6317 0
8715 6317 3262 0
8716 6654 8715 0
3262 6237 8715 0
9584 6440 6304 0
9585 9584 6304 0
9585 6304 6654 0
8716 8712 9585 0
8716 9585 6654 0
8711 8712 8716 0
8713 8711 8716 0
9584 9585 8849 0
6440 9584 8849 0
8849 9585 8850 0
8850 9585 8712 0
8710 8850 8712 0
8848 8850 8710 0
8848 8710 8847 0
8847 8710 8675 0
8916 2016 9249 0
8916 9249 8920 0
8920 9249 8922 0
9248 6401 5577 0
9586 5577 5576 0
9247 8923 8922 0
5577 9247 9248 0
8922 9249 9247 0
5577 8923 9247 0
8924 8923 5577 0
8924 5577 9586 0
5807 5809 9242 0
9587 5807 9588 0
5809 9241 9242 0
9242 8789 9240 0
5807 9242 9588 0
9240 9588 9242 0
8928 9588 9589 0
9590 8927 8924 0
9590 8924 9586 0
8903 9590 9591 0
9586 5576 5808 0
5808 9587 9586 0
9587 5808 5807 0
9592 9591 9590 0
9587 9590 9586 0
9587 9592 9590 0
9588 9592 9587 0
9591 9592 9588 0
8927 9590 3487 0
3487 9590 8903 0
8928 9591 9588 0
8928 8903 9591 0
1289 2419 2408 0
2791 1289 2408 0
2087 2791 2088 0
779 6282 2001 0
6282 779 778 0
7245 2001 6282 0
1520 780 478 0
184 158 183 0
648 485 2862 0
2419 205 203 0
204 6866 8996 0
9593 204 8996 0
9593 8996 9594 0
9593 462 204 0
9595 9593 9596 0
9594 8996 873 0
873 8996 2736 0
5357 2737 3734 0
873 2736 3731 0
874 873 3731 0
9596 9597 9595 0
9596 9593 9598 0
9594 9598 9593 0
9598 9594 9599 0
9599 9594 873 0
2188 9599 875 0
9599 873 875 0
2188 875 5829 0
9596 9598 9600 0
9596 9600 9601 0
9597 9596 9601 0
7436 9597 9601 0
9600 9598 9599 0
9599 2188 2191 0
9600 9599 9602 0
9602 9599 2191 0
9603 9601 9604 0
9604 9601 9600 0
9603 9604 9605 0
4735 4721 9606 0
880 4735 9606 0
880 9606 1378 0
9606 4721 48 0
85 1378 9606 0
85 9606 975 0
975 9606 48 0
881 1378 1561 0
881 1561 2232 0
82 1560 83 0
1561 1378 85 0
83 1561 85 0
2088 2791 1182 0
2791 2408 1182 0
1182 2408 462 0
4324 112 892 0
4324 892 9595 0
9595 892 462 0
9595 462 9593 0
4324 9595 9607 0
4325 4324 9607 0
9597 9607 9595 0
2327 2326 110 0
7436 6956 4325 0
4325 9607 9597 0
7436 4325 9597 0
1206 7439 1207 0
7436 9601 9603 0
7436 5851 5853 0
5851 7436 9603 0
4617 5851 9603 0
80 79 120 0
1151 120 1298 0
1151 1298 1297 0
2232 1560 9608 0
240 9608 1560 0
1299 1298 79 0
9608 2231 2232 0
9609 1299 318 0
79 2231 9608 0
318 79 9608 0
318 9608 240 0
9221 1299 9609 0
1297 1299 9221 0
9609 318 9610 0
9610 318 239 0
9221 9609 9610 0
9611 9610 239 0
9221 9610 9222 0
4617 9603 4618 0
4728 7440 1206 0
4728 1206 4726 0
9222 9610 9612 0
9612 9610 9611 0
424 1188 2485 0
9222 9612 9230 0
9611 239 9612 0
9612 239 3812 0
4887 3812 422 0
4887 9612 3812 0
9612 4887 4888 0
9612 4888 9613 0
9230 9612 9613 0
89 9230 9613 0
4888 5081 9614 0
9615 9613 4888 0
9615 4888 9614 0
89 9613 9615 0
89 9615 9235 0
9235 9615 782 0
9235 782 9236 0
9616 9617 9618 0
9619 9620 9616 0
9619 9616 9621 0
7184 7183 7433 0
7183 7216 9619 0
7433 7183 9619 0
7433 9619 9621 0
9622 9623 9624 0
9623 7236 9624 0
9622 9624 9625 0
9626 9627 9628 0
7197 9626 9629 0
6888 7197 9629 0
9624 7236 7086 0
4498 7236 6906 0
9624 7086 9630 0
9630 7086 4497 0
3798 7433 3799 0
3799 7433 9631 0
7433 9621 9632 0
9632 9621 9633 0
9631 7433 9632 0
9621 9616 9618 0
9634 9617 9622 0
9634 9622 9625 0
9618 9617 9634 0
9633 9621 9618 0
9634 9633 9618 0
9635 9633 9634 0
9635 9634 9625 0
9636 9635 9625 0
9636 9625 9624 0
9636 9624 9630 0
9633 9635 4536 0
9631 9632 4536 0
4536 9632 9633 0
3800 3799 7137 0
9631 7137 3799 0
7137 9631 4467 0
9631 4536 4467 0
4466 7137 4467 0
9628 9637 9638 0
9637 9639 9638 0
9639 9640 9641 0
9641 9638 9639 0
9641 9640 9642 0
9640 9643 4343 0
2082 9640 4343 0
9642 9640 2082 0
9642 2082 2084 0
9642 2084 9644 0
9645 9638 9641 0
9646 9641 9642 0
9645 9641 9647 0
9641 9646 9647 0
6729 9648 6728 0
6728 9446 6852 0
4076 3146 3145 0
9649 3146 4076 0
9650 9649 4076 0
922 9650 5037 0
9646 9642 9644 0
9647 9646 921 0
2084 2083 3146 0
2084 3146 9651 0
9651 3146 9649 0
921 9646 4710 0
9644 2084 9651 0
4710 9646 9644 0
4710 9644 9651 0
922 4710 9650 0
9650 4710 9651 0
9650 9651 9649 0
924 9647 921 0
9647 924 9652 0
9653 9652 924 0
9653 924 3673 0
9653 3673 3572 0
3674 924 923 0
3572 3673 5810 0
4468 4536 5220 0
4536 9635 4377 0
9636 9630 4378 0
4378 9630 4497 0
4377 9635 9636 0
4378 4377 9636 0
5220 4536 4377 0
5220 4377 4379 0
5220 5221 9654 0
5220 9654 9655 0
4468 5220 9655 0
9656 4468 9655 0
9656 9655 9657 0
9658 9626 9628 0
9658 9629 9626 0
9658 9628 9638 0
9658 9638 9659 0
9660 6885 9629 0
6885 6888 9629 0
9661 9629 9658 0
9660 9629 9661 0
9659 9638 9645 0
9661 9658 9659 0
9661 9659 9645 0
9654 9657 9655 0
9657 9654 9660 0
9662 9657 9660 0
9662 9660 9661 0
9660 9654 5221 0
6885 9660 5221 0
9663 9662 9661 0
9663 9661 9645 0
9664 9662 9663 0
9665 9657 9664 0
9664 9657 9662 0
4837 9664 4838 0
9663 9645 9652 0
9645 9647 9652 0
4838 9664 9652 0
9664 9663 9652 0
9652 9653 4838 0
4838 9653 3462 0
9653 3572 3462 0
7173 6758 9666 0
9666 6758 7210 0
4465 4468 9667 0
4465 9667 7009 0
9668 9666 7210 0
7210 3745 6938 0
9668 7210 9669 0
9668 9669 9670 0
9657 9665 9656 0
9665 9664 4837 0
9665 4837 4836 0
9656 9665 4836 0
7099 9656 4836 0
4836 4838 3462 0
3462 3461 4836 0
7210 6938 9671 0
9669 7210 9671 0
9667 4468 9656 0
9667 9656 7099 0
7009 9667 7099 0
6842 7009 7099 0
6842 6469 7009 0
6938 3747 6501 0
9669 9671 9672 0
9669 9672 9673 0
9669 9673 9670 0
6938 6501 7042 0
6938 7042 9674 0
9671 6938 9674 0
9671 9674 9672 0
9670 9673 9675 0
173 1570 2081 0
1370 173 9676 0
174 171 1535 0
1535 171 1370 0
1535 1370 9126 0
9126 1370 9677 0
9126 9677 9127 0
428 7172 7171 0
2930 7171 9678 0
7171 7172 7368 0
7171 7368 9679 0
9678 7171 9679 0
1132 1133 9680 0
9680 1133 2930 0
9680 2930 9678 0
9678 9679 9681 0
9682 9681 9683 0
9684 9680 9682 0
9682 9680 9678 0
9682 9678 9681 0
9127 9677 9139 0
1370 9676 9677 0
9139 9677 9685 0
9686 9139 9685 0
9686 9685 9687 0
173 2081 9676 0
2081 1882 1884 0
9685 9677 9676 0
9684 9685 9676 0
9684 9676 2081 0
9684 2081 1884 0
9687 9685 9683 0
1884 1132 9680 0
9684 1884 9680 0
9683 9685 9682 0
9682 9685 9684 0
9140 9139 9686 0
9143 9142 7536 0
9686 9687 9140 0
9140 9687 9688 0
9688 9687 9689 0
7536 9142 7311 0
9688 9142 9140 0
7311 9142 9688 0
7310 7536 7311 0
5935 7173 9666 0
5935 9666 7446 0
9668 9670 9690 0
7446 9666 9668 0
7446 9668 9690 0
7276 4233 7446 0
7276 7446 9690 0
7049 7276 9691 0
7276 7049 7026 0
9692 9670 9693 0
9670 9675 9693 0
9675 9694 9695 0
9693 9675 9695 0
9695 9696 9693 0
9696 9695 9697 0
9697 9695 9698 0
7276 9690 9691 0
9691 9690 9699 0
9690 9670 9692 0
9699 9690 9692 0
9699 9692 9693 0
2364 2363 7049 0
2364 7049 9691 0
2364 9691 7038 0
7038 9691 9699 0
7038 9699 9700 0
9700 9699 9693 0
9700 9693 9696 0
7039 7038 9701 0
6825 2362 7039 0
7430 7311 9702 0
9702 7311 9688 0
9703 9688 9689 0
9687 9683 9689 0
9689 9704 9705 0
9706 9702 9705 0
9707 9706 9705 0
9702 9703 9705 0
9702 9688 9703 0
9705 9703 9689 0
9707 9705 9708 0
9708 9705 9704 0
9708 9704 9709 0
9689 9683 9710 0
9710 9683 9711 0
9711 9683 9681 0
9711 9681 9679 0
9711 9679 9712 0
3053 7368 3054 0
3053 9712 7368 0
7368 9712 9679 0
9711 9712 9713 0
9713 9712 3053 0
9713 3053 7382 0
7382 3053 3055 0
9714 9708 9709 0
9715 9709 9704 0
9704 9689 9710 0
9715 9704 9710 0
9713 9715 9711 0
9711 9715 9710 0
9715 9713 9716 0
9716 9713 9717 0
7382 9717 9713 0
9714 9709 9718 0
9709 9715 9719 0
9719 9718 9709 0
9718 9719 2385 0
9717 7382 7190 0
9720 9717 7109 0
7109 9717 7190 0
9720 2385 9719 0
9719 9715 9716 0
9720 9719 9716 0
9720 9716 9717 0
2385 9720 5198 0
5198 9720 6732 0
6732 9720 7109 0
9183 9702 9706 0
9183 7430 9702 0
4482 7430 9183 0
9707 9708 9721 0
4484 9707 9721 0
9708 9714 9722 0
9721 9708 9722 0
4484 9183 9706 0
4484 9706 9707 0
9183 4484 4483 0
9722 9723 9721 0
4484 9721 9724 0
9714 9718 4492 0
9718 2385 2384 0
4492 9718 2384 0
2386 2385 5198 0
7029 3801 7283 0
7427 4484 9724 0
9724 9721 9723 0
9725 9724 9723 0
9726 9725 9723 0
9726 9723 7111 0
7111 9723 6697 0
9727 9722 4492 0
9722 9714 4492 0
6697 9723 9727 0
9727 9723 9722 0
6697 9727 4492 0
6697 4492 7238 0
7111 6697 6699 0
7072 6699 6698 0
7427 9724 9190 0
9190 9724 9725 0
9726 9190 9725 0
9728 9190 9726 0
9728 9726 7100 0
9726 7111 7110 0
7100 9726 7110 0
7100 7110 7101 0
7101 7110 7072 0
9190 9728 8098 0
9728 7100 1163 0
8098 9728 1163 0
7545 4809 4096 0
4810 9103 9729 0
4810 9729 4096 0
9729 9103 9099 0
4096 9729 9730 0
4094 4096 9730 0
5233 4094 4975 0
9097 9096 4812 0
9097 4812 4811 0
4812 9092 4813 0
9731 4811 9732 0
9732 4811 9733 0
9733 4811 9734 0
9734 4811 4813 0
9735 9732 9733 0
9735 9736 9737 0
9736 9735 9738 0
3216 4977 1340 0
1340 4977 4976 0
1340 4976 9739 0
4094 9730 4976 0
9730 9729 9731 0
9731 9099 9097 0
9731 9097 4811 0
9731 9729 9099 0
105 1341 106 0
1341 1340 9739 0
106 1341 9732 0
9732 1341 9739 0
9739 4976 9730 0
9739 9730 9731 0
9739 9731 9732 0
106 9732 9735 0
9737 107 106 0
9737 106 9735 0
3216 1340 1339 0
107 9737 956 0
5409 107 956 0
107 5409 218 0
105 107 9740 0
9740 107 219 0
9741 1339 9742 0
9743 9741 9742 0
9743 9742 9744 0
1339 1341 9742 0
9742 1341 105 0
9744 9742 9740 0
9740 9742 105 0
9743 9744 9745 0
9746 9743 9745 0
9746 7523 7316 0
9092 421 2632 0
4813 9092 9747 0
9747 9092 3655 0
9092 2632 3655 0
9748 9747 3657 0
2632 9077 3655 0
9077 9076 3656 0
3655 9077 3656 0
4406 9076 1199 0
3656 9076 4406 0
3656 4406 3985 0
9747 3655 3657 0
9749 3657 3985 0
9748 3657 9749 0
9749 3985 9750 0
7582 9751 9750 0
9750 9751 9749 0
4407 7729 7542 0
7509 9071 8736 0
7581 7509 8736 0
7478 7581 8736 0
6708 7509 7581 0
7225 7581 7478 0
7478 8734 7476 0
9750 3985 9752 0
7582 9750 9752 0
3334 7582 9752 0
9752 3985 4405 0
3985 4406 4405 0
4406 1199 4407 0
4405 4407 7542 0
9752 4405 7542 0
7475 3334 9752 0
7475 9752 7542 0
962 3121 325 0
6774 7477 7248 0
325 3121 322 0
9753 960 3591 0
325 324 3118 0
3591 960 325 0
9753 3591 3116 0
7480 7523 7397 0
9744 9740 438 0
9745 9744 438 0
9746 9754 7588 0
7523 9746 7588 0
7397 7523 7588 0
438 9740 219 0
437 219 218 0
438 436 9755 0
7588 9754 9756 0
9754 9746 9745 0
9754 9745 9757 0
9757 9745 438 0
9756 9754 9757 0
9755 9757 438 0
7398 7588 7234 0
9757 9755 9758 0
9756 9757 9758 0
7234 7588 7307 0
7307 7588 9756 0
9737 9736 956 0
9733 9734 9748 0
9735 9733 9748 0
956 9736 9759 0
9759 9736 9760 0
9760 9736 9738 0
956 9759 954 0
9748 9734 4813 0
9748 4813 9747 0
9760 9738 9751 0
9761 9735 9748 0
9751 9738 9761 0
9761 9738 9735 0
9761 9748 9749 0
954 9759 3333 0
3333 9759 9760 0
9751 9761 9749 0
3333 9760 7582 0
7582 9760 9751 0
9762 7308 9758 0
7308 7307 9756 0
9758 7308 9756 0
9762 1418 9763 0
955 5409 956 0
9763 1418 9764 0
9764 1418 1417 0
9764 1417 1974 0
9758 9755 1418 0
1418 9755 436 0
9762 9758 1418 0
9764 1974 7215 0
9762 9763 9765 0
7308 9762 9765 0
7306 7308 7500 0
9764 7215 961 0
961 9763 9764 0
9763 961 9766 0
961 7215 962 0
960 9753 961 0
960 962 325 0
7500 7308 9767 0
9767 7308 9765 0
9767 9765 9768 0
9768 9765 9766 0
9766 9765 9763 0
9753 9766 961 0
7500 9767 9769 0
9769 9767 9768 0
9769 9768 9770 0
9768 9766 9770 0
9770 9766 9753 0
9770 9753 3116 0
8731 9770 3116 0
5316 3452 2223 0
2952 5315 563 0
2952 563 562 0
148 147 2222 0
564 148 9771 0
148 2222 9771 0
9772 9771 9773 0
9772 564 9771 0
564 9772 565 0
2947 9772 2948 0
565 9772 2947 0
2947 2946 4434 0
1710 2947 4434 0
1710 4434 1712 0
1227 7500 9774 0
1228 1227 9774 0
9775 1228 9774 0
9775 9774 9776 0
2528 1228 9775 0
2528 9775 9777 0
9774 7500 9769 0
9774 9769 9778 0
9769 9770 9778 0
9778 9770 8731 0
8730 9778 8731 0
9776 9778 9779 0
8730 8731 8728 0
9779 9778 8730 0
9777 9775 9780 0
9780 9775 9779 0
9776 9774 9778 0
9780 9779 8730 0
9779 9775 9776 0
9780 8730 8727 0
9781 9777 9780 0
9781 9780 6790 0
9780 8727 6790 0
6790 8727 6791 0
4434 2946 1575 0
9773 9771 2222 0
9773 2222 2528 0
2948 9772 9773 0
6875 2948 9773 0
4628 6875 9782 0
9773 2528 9777 0
9782 6875 9773 0
9781 9782 9773 0
9781 9773 9777 0
4628 9782 4197 0
9782 9781 6790 0
4197 9782 6790 0
1712 4434 1576 0
1015 1712 4231 0
1712 1576 2814 0
4231 1712 2814 0
1015 4231 4230 0
4230 2814 2815 0
4230 2815 4437 0
1015 4230 1016 0
7545 5153 5151 0
7378 7216 7217 0
9619 7216 9620 0
7216 7378 9620 0
9620 7378 9783 0
9620 9783 9784 0
9616 9620 9784 0
9616 9784 9617 0
4975 3216 7493 0
7493 3216 3215 0
3216 1339 9741 0
9741 3214 3216 0
3214 9741 9785 0
9786 3215 3214 0
9787 9743 9746 0
9787 9746 7459 0
7459 9746 7316 0
9788 9785 9787 0
9787 9741 9743 0
9787 9785 9741 0
7410 9787 7459 0
9788 9787 7410 0
7340 7410 7459 0
7340 6868 6858 0
9617 9784 9789 0
9622 9617 9789 0
9622 9789 9623 0
9623 9789 9788 0
9783 7378 3215 0
3215 7378 7493 0
9783 3215 9786 0
9786 3214 9785 0
9789 9784 9786 0
9786 9784 9783 0
9788 9789 9785 0
9789 9786 9785 0
9623 9788 9790 0
9790 9788 7410 0
9790 7410 7339 0
7236 9623 9790 0
7236 9790 6906 0
9790 7339 6907 0
6906 9790 6907 0
7197 7280 9626 0
7023 5315 541 0
541 5315 2952 0
565 2947 1710 0
562 565 1710 0
1278 562 1710 0
1278 1710 1709 0
1279 1278 9791 0
9791 1278 1709 0
9791 1709 1014 0
1279 9791 4370 0
1712 1015 3001 0
1711 1712 3001 0
1014 1016 2993 0
3001 1015 1014 0
4974 1014 2993 0
4974 2993 3347 0
348 2224 9551 0
348 9551 9544 0
1014 1709 3001 0
1014 4370 9791 0
346 348 9544 0
3052 3754 5571 0
346 9544 7140 0
6916 3506 346 0
7140 6916 346 0
9542 932 7140 0
9628 9627 9792 0
9626 7280 9627 0
9792 9627 3853 0
3853 9627 7189 0
9627 7280 7189 0
9792 3853 9793 0
3853 7189 3244 0
9793 3853 9794 0
9794 3853 2530 0
7059 7023 540 0
540 7023 541 0
9795 9796 1279 0
1279 9796 542 0
9796 540 542 0
9795 1279 5219 0
5219 1279 4370 0
3221 7376 4589 0
4589 7376 9797 0
4589 9797 9798 0
7376 4420 7268 0
7267 7059 540 0
9796 7267 540 0
9797 7376 7268 0
9795 9797 9796 0
9796 9797 7268 0
7268 7267 9796 0
9798 9797 9795 0
9798 9795 5219 0
9799 9798 5219 0
9800 3852 4589 0
2530 3852 2501 0
3852 9800 2501 0
9799 5219 4369 0
9799 4369 5571 0
5571 4369 3052 0
7380 9799 5571 0
7380 4589 9798 0
7380 9798 9799 0
2501 9800 4410 0
9800 4589 7380 0
4410 9800 7380 0
4410 7380 5572 0
9542 931 932 0
931 9542 9515 0
9628 9792 9637 0
9639 9637 9801 0
9640 9639 9643 0
9792 9793 9637 0
9801 9793 9794 0
9801 9794 9802 0
9794 2530 9803 0
9802 9794 9803 0
9802 9803 7012 0
9804 9802 7012 0
9804 7012 4338 0
4343 9643 9804 0
9801 9637 9793 0
9639 9801 9643 0
9643 9801 9802 0
9804 9643 9802 0
4343 9804 6802 0
4338 6802 9804 0
931 9514 9511 0
9805 963 931 0
9805 931 9511 0
7251 963 9805 0
9806 9805 9511 0
9806 9511 9510 0
4071 3824 4072 0
4338 7012 3608 0
3608 7012 2500 0
7012 9803 2530 0
4073 4072 7251 0
7251 4072 964 0
4073 7251 9806 0
9806 7251 9805 0
4071 4073 6729 0
4073 9806 9807 0
9510 9508 9506 0
9807 9806 9808 0
9808 9806 9510 0
9808 9510 9506 0
9809 9648 9807 0
6729 4073 9648 0
9648 4073 9807 0
9809 9807 9808 0
9648 9809 9446 0
6728 9648 9446 0
9808 9506 9505 0
9809 9808 9505 0
9446 9809 9505 0
9446 9505 9445 0
366 1343 367 0
9810 367 1343 0
367 9810 9811 0
1610 365 891 0
891 365 367 0
891 367 9811 0
3326 1611 1610 0
9812 2290 805 0
9813 8995 9814 0
9815 9812 805 0
9815 805 9813 0
805 804 8995 0
9813 805 8995 0
9815 9813 9816 0
9811 889 891 0
889 9811 9817 0
889 9817 2019 0
9817 9811 9810 0
9817 9810 9812 0
9810 1343 2290 0
9810 2290 9812 0
2019 9817 9818 0
9812 9818 9817 0
9818 9812 9815 0
9819 9818 9815 0
1610 890 7126 0
2019 9818 9819 0
571 2019 2472 0
9814 4176 4175 0
9820 4175 9821 0
9821 303 2219 0
302 8992 2218 0
8988 4548 8991 0
8991 4548 8992 0
2218 8992 9822 0
9821 2219 9823 0
9823 2219 2218 0
9822 9823 2218 0
9824 9820 9825 0
9826 9824 9827 0
4175 4177 9821 0
4177 303 9821 0
9821 9825 9820 0
9825 9821 9823 0
9825 9823 9828 0
9824 9825 9827 0
9829 9827 4391 0
4763 9829 6691 0
9829 9826 9827 0
6691 9829 4391 0
4763 6691 4764 0
9830 2472 9831 0
9819 2472 2019 0
9832 2472 9819 0
2472 9832 9831 0
9816 9813 9820 0
8995 4176 9814 0
4175 9813 9814 0
9820 9813 4175 0
9833 9816 9820 0
9824 9833 9820 0
9831 9832 9834 0
9834 9832 9819 0
9834 9819 9835 0
9835 9819 9815 0
9835 9815 9816 0
9835 9816 9833 0
9833 9834 9835 0
9826 9836 9833 0
9826 9833 9824 0
9837 9834 9836 0
9834 9833 9836 0
4763 9826 9829 0
9838 9837 4763 0
9837 9836 9826 0
4763 9837 9826 0
605 572 9839 0
9839 572 2472 0
9831 9834 9840 0
9830 9831 9840 0
9839 2472 9830 0
9839 9830 9841 0
9841 9830 9842 0
9840 9834 9837 0
9840 9837 9838 0
9838 4763 4762 0
57 59 4762 0
9843 4762 3795 0
3795 4762 59 0
3794 59 58 0
3794 58 6803 0
9842 9843 9844 0
9845 9842 9844 0
9830 9840 9842 0
9843 9842 9840 0
9843 9840 9838 0
9838 4762 9843 0
9844 9843 3795 0
3794 9844 3795 0
9841 9846 1951 0
9841 9842 9846 0
9846 9842 9845 0
6803 9844 3794 0
6803 4178 9847 0
9846 9845 9847 0
6803 9845 9844 0
9847 9845 6803 0
9846 9847 9848 0
3731 3733 5276 0
3734 4259 3732 0
1610 7126 3326 0
890 570 1461 0
1461 570 573 0
2252 7126 1243 0
7126 890 1461 0
1243 7126 1461 0
2188 5829 2189 0
2191 2418 9849 0
9602 2191 9849 0
9600 9602 9604 0
9602 9850 9604 0
1170 572 605 0
9839 9841 1405 0
605 9839 1405 0
604 605 1405 0
74 1171 76 0
1405 9841 1951 0
1405 1951 1953 0
1951 9846 1952 0
9846 9848 1952 0
1952 9848 8311 0
77 1953 1367 0
1452 78 254 0
1405 1953 77 0
9602 9849 9851 0
9850 9602 9851 0
9605 9604 9850 0
9852 9605 9850 0
4618 9605 9852 0
9851 2418 7031 0
9852 9850 9853 0
9853 9850 9851 0
9851 9849 2418 0
9853 9851 9854 0
9854 9851 7031 0
573 572 1170 0
1171 573 1170 0
7025 9854 9855 0
6417 9855 2178 0
9855 9854 7031 0
2178 9855 7031 0
2178 7031 2207 0
2190 5764 1733 0
2207 2190 1733 0
7025 9855 7247 0
7247 9855 6417 0
2206 1733 109 0
9603 9605 4618 0
4618 9852 4620 0
9852 9853 9856 0
9853 9854 9856 0
9856 9854 7025 0
9852 9856 9857 0
4620 9852 9857 0
4727 4617 4619 0
4620 9857 6693 0
4619 4620 6693 0
7496 4728 4619 0
7496 4619 6694 0
7089 359 9858 0
9858 5644 2142 0
9858 359 5644 0
9858 2142 9859 0
7089 7018 7200 0
7089 9858 9860 0
9860 9858 9859 0
9860 9859 9861 0
7089 9860 9862 0
9860 9861 9863 0
9863 9861 9864 0
9863 9864 7773 0
9862 9860 9863 0
9862 9863 9865 0
9863 7773 9865 0
6693 9857 7402 0
6694 6693 7402 0
9857 9856 7544 0
7544 9856 7025 0
7544 7025 7024 0
7544 7402 9857 0
7088 7089 9862 0
3106 7088 9865 0
3106 9865 3107 0
3107 9865 5094 0
7088 9862 9865 0
5094 9865 7773 0
1650 7312 3106 0
9614 5081 7912 0
7912 5081 7861 0
9615 9614 782 0
9614 7912 783 0
9614 783 782 0
7040 7313 9866 0
7040 5254 1720 0
9867 7207 7040 0
7207 5429 7040 0
9867 7040 9866 0
7208 7207 9471 0
9471 7207 9867 0
9867 9866 9868 0
9471 9867 9472 0
9472 9867 9473 0
4816 9362 7154 0
7457 7344 3432 0
3432 7344 3683 0
7457 3432 3431 0
9869 9363 9358 0
9324 9323 9870 0
9869 9324 9870 0
9869 9358 9324 0
3432 3684 9871 0
3683 7154 3684 0
7154 9362 9363 0
3684 7154 9363 0
3684 9363 9869 0
9869 9871 3684 0
9871 9869 9872 0
9873 3433 9872 0
3433 3432 9871 0
9872 3433 9871 0
9873 9872 9874 0
9473 9867 9868 0
9875 9473 9868 0
9876 9875 9877 0
9866 7313 3431 0
7313 7457 3431 0
9875 9868 9878 0
9878 9868 9866 0
3431 9878 9866 0
9877 9875 9873 0
9875 9878 9873 0
9873 9878 3431 0
9873 3431 3433 0
9473 9875 9876 0
3075 9473 9876 0
9876 9877 9879 0
9873 9874 608 0
9877 9873 608 0
9877 608 9879 0
9880 9879 4135 0
3075 9876 9880 0
9880 9876 9879 0
3076 3075 9880 0
3076 9880 9881 0
9881 9880 4135 0
6854 9881 4135 0
6854 4135 4134 0
3078 3077 2124 0
2124 3077 4931 0
3076 9881 9882 0
9881 6854 9883 0
9882 9881 9883 0
3077 3076 9882 0
4931 3077 9882 0
3908 9322 7614 0
9317 9316 9322 0
9314 9311 9316 0
9884 9322 9885 0
9885 9322 9316 0
9885 9316 9886 0
7614 9322 9884 0
7613 7614 9884 0
3909 7613 9887 0
3909 9887 9888 0
7613 9884 9887 0
9888 9887 9889 0
9890 9888 9889 0
9311 7611 9305 0
9311 9305 9891 0
9891 9892 9893 0
7612 1976 1978 0
7612 1978 3843 0
9305 7612 3843 0
9305 3843 9892 0
9892 3843 8252 0
8252 3843 3844 0
9893 9892 8252 0
9892 9891 9305 0
9894 9893 8252 0
9894 8252 8251 0
1448 8251 6759 0
1448 6759 6355 0
9895 9893 8250 0
9893 9894 8250 0
8250 9894 8251 0
1448 8250 8251 0
9316 9311 9891 0
9886 9316 9891 0
9886 9891 9893 0
9896 9889 9885 0
9889 9887 9885 0
9885 9887 9884 0
9896 9885 9886 0
9893 9896 9886 0
9895 9896 9893 0
9897 9895 8250 0
9898 9899 9900 0
9897 8250 1450 0
9901 9895 9897 0
9901 9897 1450 0
9901 1450 8247 0
8246 9901 8247 0
9898 9889 9896 0
9899 9898 9896 0
9899 9896 9901 0
9901 9896 9895 0
9899 9901 8246 0
8246 9902 9899 0
9902 8246 7081 0
1246 9902 7081 0
9903 1246 862 0
2775 4931 9904 0
2775 9904 7220 0
9904 4931 9882 0
9904 9882 9883 0
607 9879 608 0
4135 9879 607 0
607 609 4135 0
9904 9883 6930 0
6930 9883 6854 0
9905 9904 6930 0
9872 9869 9870 0
9870 9323 3908 0
3910 9870 3908 0
3910 3909 9888 0
9906 9872 3910 0
3910 9872 9870 0
9906 3910 9890 0
9907 9906 9890 0
9890 3910 9888 0
2382 6930 2381 0
608 9874 9908 0
9906 9874 9872 0
631 609 606 0
9908 606 608 0
9907 9908 9874 0
9907 9874 9906 0
9900 9908 9907 0
704 631 4122 0
9890 9889 9898 0
9907 9890 9898 0
9900 9907 9898 0
606 9908 9900 0
9903 4122 631 0
9903 631 606 0
9909 9903 606 0
9909 606 9900 0
9909 9900 9899 0
9909 9899 9902 0
1246 9909 9902 0
1246 9903 9909 0
862 4122 9903 0
9904 9905 7220 0
7220 9905 9910 0
9911 7220 9912 0
4870 9911 9484 0
2776 7220 4870 0
4870 7220 9911 0
9484 9911 9483 0
9483 9911 9912 0
9482 9483 9485 0
9485 9483 9913 0
6930 2382 9910 0
9910 2382 7093 0
9914 9910 7093 0
7093 6288 1834 0
9914 7093 1834 0
9914 1834 8231 0
9912 9914 8231 0
9913 9912 8231 0
9913 9483 9912 0
9486 9485 9915 0
9485 9913 9915 0
7220 9910 9912 0
9910 9905 6930 0
9912 9910 9914 0
9915 9913 1635 0
1220 9915 1635 0
1635 9913 8231 0
1398 9486 9915 0
9915 1220 6655 0
1398 9915 6655 0
9236 782 781 0
9916 7912 7914 0
783 7912 9916 0
9236 781 9253 0
783 9916 9917 0
781 783 9917 0
9917 9916 9918 0
9918 9916 7914 0
781 9917 9254 0
9253 781 9254 0
7914 5234 1194 0
9918 7914 1194 0
9254 9917 9919 0
9255 9254 9919 0
9919 9917 9918 0
9919 9918 9920 0
9255 9919 9920 0
9255 9920 7954 0
7773 9864 7752 0
7752 9864 9921 0
7589 7752 9921 0
7589 9921 4731 0
9861 9859 9922 0
9859 2142 2141 0
9922 9859 2141 0
4731 9922 7549 0
9921 9864 9861 0
9921 9861 9922 0
4731 9921 9922 0
6301 3144 9923 0
9924 7745 9925 0
7745 6301 9923 0
7745 9923 9926 0
7745 9926 9925 0
7840 9924 9925 0
7840 9925 6387 0
7954 9920 7900 0
9920 9918 1193 0
7900 9920 1193 0
9927 5234 2048 0
1193 9918 1194 0
1194 5234 9927 0
1194 9927 341 0
1193 341 9928 0
9927 2048 7893 0
7769 7845 7794 0
9928 341 1077 0
342 341 9927 0
342 9927 7893 0
342 7893 7845 0
6386 340 342 0
6386 342 7845 0
6386 1077 340 0
7841 7769 9924 0
7769 7745 9924 0
7840 7841 9924 0
6387 6386 7840 0
7954 7900 9929 0
7954 9929 4266 0
4266 9929 5811 0
4266 5811 4603 0
7900 7901 5811 0
1193 9928 7901 0
5811 7901 4256 0
5811 9929 7900 0
4255 3477 2185 0
2185 3477 950 0
9930 1077 6387 0
9931 9928 4843 0
9928 1077 9930 0
4843 9928 9930 0
9931 4256 7901 0
9931 7901 9928 0
3478 4256 9931 0
3479 3478 9931 0
3479 9931 4843 0
950 3477 9932 0
3477 4493 9932 0
950 9932 951 0
4843 9930 5013 0
951 9932 9264 0
9932 4493 4844 0
9264 9932 4844 0
9264 9933 9263 0
9264 4844 9933 0
1367 1953 8311 0
8302 1367 8311 0
1953 1952 8311 0
2920 1452 256 0
255 1367 8302 0
3438 6572 6297 0
6297 6572 6240 0
6297 5857 6066 0
9933 4844 5013 0
9263 9933 5013 0
9263 5013 9934 0
7661 9263 9934 0
7661 9934 7269 0
5013 9930 2571 0
5013 2571 2570 0
7269 9934 7270 0
7270 9934 2570 0
9934 5013 2570 0
7270 2570 2572 0
9935 7271 7270 0
9935 7270 2572 0
9930 6387 9936 0
2571 9930 9936 0
9936 6387 9937 0
9938 9936 9937 0
9938 9937 1705 0
9939 9938 1705 0
9939 1705 1704 0
9939 1704 553 0
2684 9935 7631 0
7631 9935 2572 0
2572 2571 9938 0
9938 2571 9936 0
7631 2572 9938 0
7631 9938 9939 0
552 7631 9939 0
552 9939 553 0
6387 9925 9937 0
9937 9925 9940 0
9937 9940 9941 0
9926 9923 9942 0
9940 9925 9926 0
9940 9926 1799 0
1799 9926 9942 0
9940 1799 2845 0
3143 7549 4592 0
9922 2141 7495 0
2142 5644 2143 0
2143 5644 5643 0
4959 7549 7495 0
7549 9922 7495 0
2157 7495 2141 0
2796 2143 431 0
9923 3144 4593 0
9942 9923 4593 0
1800 4959 7495 0
1799 9942 1800 0
1800 9942 4593 0
1801 1800 2797 0
2797 1800 7495 0
9943 2912 2911 0
9944 9943 2911 0
9945 9944 3896 0
9944 2911 3896 0
9945 3896 9946 0
9946 3896 3895 0
9945 9946 9947 0
9947 9946 9948 0
553 1704 1706 0
1705 9937 9941 0
1703 1705 9941 0
2845 9941 9940 0
9946 3895 4817 0
9946 4817 2846 0
9948 9946 2846 0
1703 2846 1706 0
9948 2846 2845 0
1703 9941 2845 0
9947 9948 2805 0
9949 9947 2805 0
9949 2805 2795 0
9948 2845 1799 0
2805 9948 1799 0
2805 1799 1801 0
7522 2795 7370 0
7370 2795 2796 0
550 9944 9945 0
9945 9947 9950 0
9950 9947 9949 0
6939 9950 9949 0
6976 9950 6939 0
9949 2795 7522 0
6924 7522 3345 0
6924 6939 9949 0
6924 9949 7522 0
6925 6924 3344 0
6464 1980 6515 0
7662 7661 7817 0
7271 9935 5080 0
5080 9935 2684 0
7817 7269 7271 0
5116 7817 7271 0
2912 9943 9951 0
9951 5688 2912 0
5688 9951 5689 0
9952 5687 5689 0
7448 5687 9952 0
7448 9952 7742 0
550 9945 551 0
9945 9950 551 0
551 9950 6976 0
505 551 6976 0
505 6976 1916 0
504 551 505 0
1748 1192 7130 0
549 551 504 0
503 506 7209 0
5028 1748 7130 0
504 503 8291 0
549 504 8291 0
7507 7130 8292 0
503 7209 7507 0
8291 503 7507 0
7541 7540 7742 0
7742 9952 9953 0
7541 7742 9954 0
9954 7742 9955 0
9955 7742 9953 0
9956 5689 9951 0
9951 9943 9944 0
9951 9944 9956 0
9956 9944 550 0
9956 550 549 0
9957 9956 549 0
9955 9953 5481 0
9953 9952 9956 0
9956 9952 5689 0
5481 9953 9957 0
9956 9957 9953 0
5481 9957 549 0
2759 9955 2760 0
9955 5481 2760 0
5481 549 8291 0
5482 5481 8291 0
7541 9954 7529 0
7529 9954 7595 0
9954 9955 2759 0
2759 2761 7596 0
4625 7529 7595 0
2759 7595 9954 0
7595 2759 7596 0
7292 7596 3700 0
7292 3700 3702 0
990 2592 988 0
9958 9959 2237 0
6193 9958 2237 0
9959 9960 2237 0
9960 1075 2237 0
9961 9962 1076 0
2548 1076 9962 0
9961 9963 9964 0
9962 9961 9964 0
9965 4451 9962 0
9962 4451 2548 0
9964 9965 9962 0
4451 9965 3576 0
9406 3576 9965 0
9406 9965 9409 0
9409 9964 9966 0
9967 9409 9966 0
9409 9965 9964 0
9407 9409 9967 0
9410 9407 9967 0
9410 9967 6720 0
1076 1637 9961 0
9961 1637 9968 0
9961 9968 9969 0
2430 9969 2431 0
6514 2430 1555 0
9970 9969 2430 0
9970 2430 6514 0
9970 6514 9971 0
6471 9972 6356 0
6664 6471 6356 0
6664 6356 1676 0
5410 6471 6664 0
6812 6514 6582 0
511 509 2533 0
510 511 9973 0
510 9973 9974 0
3548 912 3546 0
6720 9967 914 0
914 9967 9966 0
913 6720 914 0
3546 912 9975 0
9975 912 914 0
9976 9975 914 0
9976 914 9966 0
9429 9975 9977 0
9977 9976 9978 0
9977 9975 9976 0
9979 9964 9963 0
9979 9963 9970 0
9963 9961 9969 0
9963 9969 9970 0
9980 9977 9978 0
9978 9976 9981 0
9980 9978 9982 0
9981 9976 9966 0
9981 9966 9964 0
9981 9964 9979 0
9981 9979 9970 0
9982 9978 9971 0
9978 9981 9970 0
9971 9978 9970 0
9980 9982 9983 0
6581 9983 9982 0
9982 9971 6812 0
6812 9971 6514 0
6581 9982 6812 0
2114 2113 510 0
3546 9975 9429 0
9984 9977 9980 0
9984 9980 9983 0
9430 9429 9977 0
9984 9430 9977 0
9984 9983 9432 0
9430 9984 9432 0
9432 3110 2495 0
3110 9983 6581 0
3110 6581 2496 0
2114 510 9974 0
2114 9974 813 0
2115 2114 813 0
3914 2115 813 0
2945 2115 3914 0
9432 9983 3110 0
3766 3768 9441 0
9441 3768 6901 0
9444 9441 6901 0
6901 6474 6746 0
6901 6746 6852 0
6852 9444 6901 0
9444 6852 9446 0
5172 8279 9958 0
5172 9958 6193 0
9985 8277 8278 0
9959 9958 8279 0
8279 9985 9959 0
9985 8279 8277 0
8278 8276 9986 0
9986 8276 8275 0
8275 6314 6423 0
6423 6314 1777 0
1777 6314 6165 0
6423 9986 8275 0
6423 9987 9986 0
9988 9985 9989 0
8278 9989 9985 0
9989 8278 9986 0
9959 9985 9960 0
9960 9985 9988 0
9989 9986 9990 0
1075 9960 9988 0
1075 9988 1637 0
9991 4336 3390 0
4328 4336 9991 0
4328 9991 4326 0
4326 9991 9992 0
368 9993 6110 0
9993 368 370 0
9993 370 9994 0
9993 9994 584 0
584 6110 9993 0
9995 9992 9991 0
9996 9992 9995 0
9995 9991 3390 0
6110 9995 3390 0
9996 9995 584 0
584 9995 6110 0
586 9996 584 0
9992 9996 9997 0
9998 9996 586 0
9996 9998 9999 0
9997 9996 9999 0
10000 9997 9999 0
9988 9989 9968 0
9968 9989 9990 0
1637 9988 9968 0
9969 9968 9990 0
9990 9986 9987 0
9990 9987 2835 0
2835 9987 1776 0
4327 4326 10001 0
1776 9987 6423 0
10001 4522 3166 0
10001 3166 4327 0
4326 10002 10001 0
4522 10001 6349 0
6349 10001 10002 0
6349 10002 5656 0
10002 4326 9992 0
5656 10002 9992 0
5656 9992 9997 0
1466 5656 9997 0
10000 1466 9997 0
9969 9990 2835 0
2431 9969 2835 0
2438 2431 2835 0
1465 1466 10000 0
10000 9999 10003 0
1465 10000 10003 0
5655 6349 5656 0
5656 1466 1303 0
4831 5015 3167 0
4831 6349 5655 0
5655 5015 4831 0
6471 4913 5015 0
10004 5015 5655 0
5655 1303 1300 0
6471 5015 9972 0
9972 5015 10004 0
9972 10004 10005 0
8796 8675 8673 0
8674 8796 8673 0
3113 10006 5348 0
6027 5492 10007 0
10006 6027 10007 0
10007 5492 5348 0
10006 10007 5348 0
10008 10006 3113 0
8797 6027 10006 0
8800 10006 10008 0
8797 10006 8800 0
10009 6053 4154 0
10010 8672 6053 0
859 6053 10009 0
10009 4154 10011 0
8671 10011 4154 0
10012 10011 8671 0
8800 10008 8799 0
10008 10010 859 0
8672 10008 3113 0
10010 10008 8672 0
859 10010 6053 0
10009 860 859 0
860 10009 10011 0
860 10011 10013 0
10008 859 8802 0
8799 10008 8802 0
860 10013 858 0
858 8802 859 0
10012 10013 10011 0
10012 9589 10013 0
8803 858 8804 0
8804 858 10013 0
8804 10013 9589 0
8788 8804 9240 0
370 1185 9994 0
9994 1185 10014 0
1692 8221 2204 0
2204 10014 1185 0
10014 2204 10015 0
10014 10015 10016 0
10017 10014 10016 0
10017 10016 10018 0
1175 1174 10019 0
8222 1175 10016 0
10020 10016 10019 0
10019 10016 1175 0
2204 8221 8222 0
10015 2204 8222 0
10016 10015 8222 0
10020 10018 10016 0
10021 10022 10023 0
10018 10020 10022 0
10022 10020 10024 0
10021 10018 10022 0
10022 10024 10023 0
6032 10023 2261 0
5891 1630 2518 0
5891 2517 6446 0
8210 8209 291 0
6446 8210 6447 0
6447 8210 8090 0
8090 8210 291 0
8090 291 293 0
6447 8090 8088 0
8084 6447 8088 0
6109 6023 6362 0
6023 5891 6446 0
6023 6446 6362 0
3685 6362 6176 0
6176 6447 8084 0
3686 6176 8084 0
6067 6109 3685 0
6067 3685 4779 0
4902 6067 4779 0
3687 4779 3685 0
4902 4779 4777 0
2261 10023 10024 0
10024 10020 395 0
395 2261 10024 0
2261 395 692 0
394 692 395 0
396 10019 1174 0
396 1174 1954 0
396 395 10019 0
10019 395 10020 0
394 6309 467 0
6032 2261 2260 0
6267 3239 6318 0
10025 6318 6480 0
6480 6161 10026 0
6411 10026 6161 0
584 9994 10014 0
10018 10021 10017 0
10017 10021 10027 0
585 584 10014 0
585 10014 10017 0
585 10017 10027 0
586 585 10027 0
6329 10021 10023 0
10021 6329 10028 0
10021 10028 10029 0
6329 10023 6032 0
6033 6329 6032 0
6197 10028 6329 0
586 10027 9998 0
10030 9998 10027 0
10029 10027 10021 0
10030 10027 10029 0
10031 10030 10029 0
10031 10029 10028 0
6197 6198 10031 0
6197 10031 10028 0
2024 10031 6187 0
6187 10031 6198 0
2023 10031 2024 0
2023 9998 10031 0
9998 10030 10031 0
9998 2023 9999 0
10025 6480 10032 0
10025 6267 6318 0
6267 10025 10033 0
2538 6267 10034 0
10034 6267 10035 0
10035 6267 10033 0
10036 10034 10035 0
6480 10026 10032 0
10026 6411 6412 0
10026 6412 10037 0
10033 10032 10038 0
10026 10037 10032 0
10038 10032 10037 0
10039 10038 10040 0
10036 10035 10041 0
10041 10035 10042 0
10035 10033 10042 0
10033 10025 10032 0
10042 10033 10039 0
10039 10033 10038 0
10041 10042 10043 0
10042 10039 10044 0
10045 10043 10044 0
10043 10042 10044 0
10046 10043 10045 0
10044 10047 10045 0
9999 2023 10048 0
2024 5394 2025 0
10049 10048 2023 0
10049 2023 2025 0
10048 10049 10050 0
10051 10049 2025 0
10050 10049 10051 0
10034 2536 2538 0
10051 2025 10036 0
10036 2025 5394 0
5394 4404 2536 0
5394 2536 10036 0
10034 10036 2536 0
10050 10051 10046 0
10051 10041 10046 0
10051 10036 10041 0
10046 10041 10043 0
10046 10045 10052 0
10003 9999 10048 0
10003 10053 1465 0
10053 10048 10050 0
10053 10003 10048 0
10054 1465 10053 0
1350 1465 10054 0
10050 10046 10052 0
10055 10050 10052 0
3460 1465 1349 0
10053 10050 10055 0
10054 10053 10055 0
10054 10055 10056 0
10056 1350 10054 0
1350 10056 1351 0
3946 1302 3459 0
1300 1302 3945 0
5655 1300 3945 0
5655 3945 10004 0
10004 3945 10005 0
8151 8150 3531 0
8150 3529 3531 0
5919 6215 10057 0
10057 6215 10058 0
10057 5920 5919 0
5920 10057 10059 0
10057 10058 10059 0
10058 6215 10060 0
10060 6215 6395 0
10061 10060 8144 0
8144 8137 10062 0
10060 6395 8144 0
8144 902 10061 0
902 8144 10062 0
902 10062 903 0
10063 902 904 0
10064 10065 10066 0
10059 10058 10061 0
10066 10065 10067 0
10065 10059 10061 0
10065 10061 10068 0
10067 10065 10068 0
10061 10058 10060 0
10067 10068 10063 0
10068 10061 902 0
10063 10068 902 0
10066 10067 10069 0
10070 10066 10069 0
10071 10070 10069 0
10071 10069 10072 0
10067 10063 904 0
1901 10067 904 0
1902 904 1457 0
10072 10069 1901 0
1901 10069 10067 0
1902 1901 904 0
8137 1870 10062 0
8131 292 10073 0
10073 292 8209 0
10073 8209 8323 0
4581 4580 10074 0
4580 6031 10074 0
8131 10074 6031 0
10074 8131 10073 0
8323 10074 10073 0
4581 10074 10075 0
10075 10074 8323 0
10075 8323 8319 0
10075 8319 8318 0
2847 649 1081 0
2167 2847 1081 0
1457 904 10076 0
650 1457 10076 0
10077 1457 650 0
649 2847 10077 0
650 649 10077 0
10076 904 903 0
10076 903 1868 0
1868 10062 1870 0
650 10076 1868 0
1868 903 10062 0
10078 6477 6392 0
10079 4581 10075 0
10079 4579 4581 0
10078 6392 10079 0
6392 4579 10079 0
10078 10079 10075 0
10078 10075 8318 0
10080 6477 10078 0
10081 10078 8318 0
10081 10080 10078 0
8317 10081 8318 0
6486 10080 10081 0
5135 1900 6486 0
6486 6477 10080 0
10081 5135 6486 0
10082 5135 10081 0
10082 10081 8317 0
10082 10083 5135 0
10083 10082 10084 0
10082 8317 10085 0
10085 8317 8314 0
10085 8314 8312 0
10085 8312 8311 0
10084 10082 10085 0
10085 9848 10086 0
9848 10085 8311 0
8149 8151 8168 0
8151 3531 5920 0
8168 8151 10087 0
8151 5920 10087 0
5920 10059 10065 0
5920 10065 10064 0
10064 306 10088 0
10087 5920 10064 0
10088 10087 10064 0
10089 10087 10088 0
10066 10070 10090 0
10070 10071 10090 0
10090 10071 5457 0
6544 10090 5457 0
10072 1901 1456 0
10091 5457 10071 0
1866 5457 10091 0
1866 10091 1867 0
10092 10089 10088 0
10092 10088 305 0
10088 306 305 0
306 10064 10066 0
306 10066 10090 0
306 10090 3709 0
3709 10090 6544 0
3709 304 306 0
3710 3709 6544 0
10093 10089 10092 0
10092 305 10094 0
925 10092 10094 0
925 10094 2137 0
10094 305 304 0
3709 2137 304 0
304 2137 10094 0
2137 3709 2138 0
10092 925 10095 0
925 2137 926 0
1457 10077 10096 0
1457 10096 1455 0
10096 10077 2847 0
10096 2847 2169 0
1455 10096 493 0
10096 2169 493 0
493 2169 494 0
10084 10085 6772 0
6772 10086 3940 0
3940 10086 4178 0
6772 10085 10086 0
10086 9848 9847 0
4178 10086 9847 0
10083 4916 5135 0
4916 10083 10084 0
4917 4916 6772 0
4916 10084 6772 0
131 416 439 0
926 2137 470 0
3793 1867 10097 0
10098 3793 10097 0
4919 3793 10099 0
10099 3793 10098 0
10097 1867 10091 0
10097 10091 10100 0
10100 10091 10071 0
10100 10071 10072 0
10100 10072 1456 0
129 10101 1456 0
129 1456 1455 0
10099 10098 10102 0
10103 10099 10102 0
10101 10103 10102 0
10098 10097 10102 0
10102 10097 10100 0
10102 10100 1456 0
10101 10102 1456 0
129 128 10101 0
10103 10101 128 0
10104 10103 128 0
1187 10104 128 0
1186 128 131 0
27 30 1186 0
5312 28 2908 0
926 470 469 0
470 2138 280 0
10099 10103 10105 0
469 280 1767 0
1187 30 9827 0
10106 10104 1187 0
9827 10106 1187 0
10103 10104 10107 0
10107 10104 10106 0
29 28 5312 0
9827 30 4391 0
10106 9827 9825 0
1621 4918 4919 0
10108 4919 10099 0
10108 10099 10105 0
10105 10103 10107 0
4547 10108 10109 0
5009 1621 4919 0
10108 5009 4919 0
10109 10108 10105 0
9822 10109 10105 0
9828 10105 10107 0
9828 10107 10106 0
9828 10106 9825 0
5009 10108 4547 0
2397 5009 4547 0
10109 9822 4547 0
9822 10105 9828 0
9822 9828 9823 0
4548 4547 9822 0
7334 2397 4548 0
4548 9822 8992 0
8168 10087 10089 0
8168 10089 10093 0
8521 8520 8519 0
8519 8168 10093 0
8521 8519 10093 0
10093 10092 10110 0
10110 10092 10111 0
10111 10092 10095 0
10111 10095 10112 0
10113 8521 10093 0
10113 10093 10110 0
10110 10114 10113 0
10111 10115 10110 0
8522 8521 10113 0
8522 10113 8525 0
8525 10113 10114 0
8525 10114 8524 0
10115 10114 10110 0
10115 10111 10116 0
10117 10115 10116 0
10117 10116 10118 0
8527 10114 10117 0
10114 10115 10117 0
8524 10114 8527 0
8527 10117 8528 0
925 469 10119 0
925 10119 10095 0
10095 10119 10120 0
469 1767 10119 0
10119 1767 10121 0
10122 10119 10121 0
10120 10119 10122 0
10123 10120 10124 0
10124 10120 10122 0
10121 1767 2329 0
2329 1767 1769 0
10121 2329 10125 0
399 10125 2329 0
8973 10126 8980 0
8980 10125 399 0
8973 8980 8979 0
10127 10128 10126 0
10128 10123 10126 0
10125 10124 10122 0
10121 10125 10122 0
10124 10125 8980 0
10124 10126 10123 0
10126 10124 8980 0
8974 10126 8973 0
10126 8974 10127 0
10129 10127 8974 0
10127 10129 10130 0
8972 10129 8974 0
10130 10129 6987 0
6987 10129 8972 0
8530 8529 10131 0
8529 8528 10132 0
10131 8529 10132 0
8530 10131 10133 0
8530 10133 6677 0
10134 10117 10118 0
10132 8528 10117 0
10134 10132 10117 0
10135 10131 10132 0
10135 10132 10134 0
6677 10133 6384 0
6384 10133 10131 0
6384 10131 6385 0
10135 6385 10131 0
10116 10111 10112 0
10112 10095 10136 0
10120 10136 10095 0
10116 10112 10136 0
10116 10136 10123 0
10123 10136 10120 0
10118 10116 10128 0
10128 10116 10123 0
10135 10134 10137 0
10137 6385 10135 0
10127 10137 10134 0
10130 10137 10127 0
10127 10134 10128 0
10134 10118 10128 0
6385 10137 6383 0
1534 6384 6383 0
1534 6383 6987 0
10130 6383 10137 0
6987 6383 10130 0
6384 1534 6843 0
8530 6677 3245 0
7177 6957 6993 0
6937 6831 8960 0
8550 6993 10138 0
8550 10138 8551 0
10138 6993 8959 0
6821 6993 6610 0
8959 6993 6821 0
8959 6821 6937 0
8956 10138 8959 0
8557 8556 8955 0
8556 8551 8955 0
10138 8956 8551 0
8955 8551 8956 0
8955 8558 8557 0
9650 4076 5037 0
3913 3313 3914 0
3313 2945 3914 0
814 813 10139 0
10139 813 9974 0
812 3914 813 0
1483 814 10140 0
2745 1483 10141 0
10141 2746 2745 0
4076 4075 5037 0
3674 923 4025 0
1699 1698 5264 0
3673 3023 5810 0
10139 9974 9973 0
10139 9973 10142 0
10142 9973 10143 0
9973 511 10143 0
511 2533 10143 0
10142 10144 10145 0
10144 10142 10143 0
10140 10142 10146 0
10146 10142 10145 0
2533 1657 1677 0
10147 1677 6356 0
6356 9972 10148 0
10148 9972 10005 0
10147 6356 10148 0
10005 10147 10148 0
10147 10005 10149 0
10150 10147 10149 0
10151 10149 10005 0
10149 10151 10152 0
10152 10151 10153 0
10154 10146 10149 0
10145 10144 10150 0
10143 2533 1677 0
1677 10144 10143 0
10144 1677 10147 0
10150 10144 10147 0
10146 10145 10150 0
10146 10150 10149 0
10154 10149 10152 0
10154 10152 10155 0
10156 10152 10153 0
10157 10155 10156 0
10156 10155 10152 0
3965 10157 10156 0
10158 10155 10157 0
4702 3919 4452 0
4452 3919 1699 0
1699 4453 4452 0
5264 4453 1699 0
4454 4453 10159 0
524 4452 4454 0
5263 10141 10160 0
10160 10141 1483 0
10140 814 10142 0
10142 814 10139 0
10160 1483 10146 0
10146 1483 10140 0
5263 1698 2746 0
5263 2746 10141 0
10160 4453 5263 0
10160 10159 4453 0
10161 10159 10160 0
10154 10160 10146 0
6403 4454 10162 0
10161 10160 10154 0
10161 10154 10155 0
4454 10159 10162 0
10161 10162 10159 0
10161 10155 10158 0
10162 10161 10158 0
3919 4702 3920 0
3463 3918 4500 0
785 6912 4500 0
6912 785 784 0
4848 5799 6403 0
6403 10162 10158 0
6955 1354 6644 0
10163 6955 10164 0
10163 1352 1354 0
6955 10163 1354 0
1353 1352 9674 0
7042 1353 9674 0
10165 10163 10164 0
10165 10164 10166 0
10167 10165 10166 0
9672 9674 10165 0
9673 9672 10165 0
9674 1352 10165 0
10165 1352 10163 0
9673 10165 10167 0
9673 10167 9694 0
9673 9694 9675 0
8911 663 662 0
10168 10169 10170 0
6034 10169 10168 0
2464 663 6034 0
663 8911 6034 0
6034 8911 10169 0
6028 10168 6029 0
6264 8742 9209 0
2810 6264 9209 0
6262 2810 9209 0
2811 2810 6262 0
10168 3382 6034 0
3380 3382 10168 0
3380 10168 6028 0
3380 6028 3924 0
3924 6028 5146 0
5592 5564 2457 0
5565 5564 5658 0
3177 2458 2457 0
3174 2458 3177 0
2457 5564 3177 0
1388 3174 1389 0
4561 4559 4525 0
5658 5177 5096 0
3175 4561 4525 0
3951 1389 3176 0
3176 1389 3174 0
888 887 10171 0
4862 888 10171 0
2871 7175 5859 0
5859 7175 5519 0
10171 887 2871 0
10171 2871 5859 0
5520 6289 2512 0
10171 5567 4862 0
5567 10171 5859 0
663 2464 661 0
800 661 5822 0
5822 661 2463 0
6323 2481 9006 0
1585 1388 1380 0
2458 3174 1388 0
10172 1585 1584 0
10173 1585 10172 0
1584 5567 5858 0
1584 5858 4245 0
10172 1584 4245 0
10172 4245 10174 0
4245 4244 10174 0
10175 10174 4244 0
10175 4244 4246 0
2657 4648 10175 0
2657 10175 4246 0
5277 4648 4649 0
10174 10173 10172 0
10176 10177 10174 0
10174 10177 10173 0
1584 1586 5567 0
10178 10176 10179 0
10179 10176 10174 0
10179 10174 10175 0
10179 10175 4648 0
10179 4648 5277 0
5277 10178 10179 0
10178 5038 6678 0
10178 5277 5038 0
2523 6678 5038 0
5038 5040 6238 0
5038 6238 2523 0
9007 9006 10180 0
9007 10180 9010 0
9006 2481 10181 0
10180 9006 10181 0
9010 10180 10182 0
9011 9010 10182 0
9011 10182 10183 0
9011 10183 10184 0
2458 1388 2481 0
1585 10181 2481 0
1585 2481 1388 0
10173 10181 1585 0
6357 9011 6678 0
6678 9011 10184 0
10182 10180 10185 0
10185 10180 10181 0
10183 10182 10185 0
10185 10181 10173 0
10185 10177 10183 0
10183 10177 10176 0
10177 10185 10173 0
10178 10183 10176 0
10184 10183 10178 0
10178 6678 10184 0
9010 9011 9009 0
6763 9011 6357 0
6678 2522 6357 0
6523 6522 3395 0
6523 3395 8479 0
6519 6523 8478 0
6523 8479 8478 0
6520 6519 8477 0
8478 8477 6519 0
8473 8477 8475 0
9013 6520 8477 0
9013 8477 8473 0
9013 8473 9015 0
6590 6520 9013 0
8475 8472 8473 0
9015 8473 8469 0
9015 8469 8470 0
9014 9015 8953 0
8953 9015 8470 0
8910 10186 10169 0
8911 8910 10169 0
10187 10188 10189 0
10189 10188 10190 0
10188 10169 10186 0
10187 10169 10188 0
10170 10187 5373 0
10170 10169 10187 0
10191 10192 10193 0
10190 10191 10193 0
10194 8743 10192 0
8743 8671 5912 0
8743 10193 10192 0
5374 10193 8743 0
5374 8743 1337 0
1337 8743 1338 0
10168 10170 5373 0
10187 10189 5373 0
10190 10193 10189 0
5374 10189 10193 0
10189 5374 5373 0
5375 5374 1337 0
10168 5373 6029 0
6264 4894 8742 0
4894 4893 8742 0
9209 8742 8693 0
10186 8910 8909 0
10188 8906 10195 0
10186 8909 8906 0
10188 10186 8906 0
10190 10188 10195 0
10190 10195 10196 0
8906 6228 8902 0
10195 8906 8902 0
10197 10195 8902 0
8902 8904 10197 0
10198 10197 8904 0
10198 8904 10199 0
10191 10196 10197 0
10191 10197 10198 0
10195 10197 10196 0
10192 10198 10199 0
10196 10191 10190 0
10192 10199 10194 0
10191 10198 10192 0
8743 10194 8671 0
176 10200 10201 0
176 10201 6298 0
9694 10167 10202 0
10202 10167 10203 0
6298 10201 6837 0
10201 10200 10202 0
10204 10201 10202 0
10204 10202 10203 0
10201 10204 6837 0
10164 6955 10205 0
10205 6955 6451 0
6403 10158 6511 0
4846 6403 6511 0
6451 6955 6452 0
10205 6451 10206 0
6838 6837 10204 0
10166 10164 10205 0
10203 10167 10166 0
10207 10204 10203 0
10208 10203 10166 0
10207 10203 10209 0
10209 10203 10208 0
10205 10208 10166 0
10208 10205 10206 0
10210 6838 10204 0
10211 10204 10207 0
10210 10204 10211 0
10209 10208 10206 0
10212 10211 10207 0
10212 10207 10209 0
10211 10212 10213 0
10213 10212 10209 0
6511 10158 10214 0
10158 10157 10215 0
10214 10158 10215 0
10156 10153 3965 0
3965 10215 10157 0
10215 3965 3964 0
10216 10215 3964 0
10214 10215 10216 0
10217 10214 10216 0
3965 10153 3946 0
10151 10005 3945 0
10153 10151 3945 0
3946 10153 3945 0
3965 3946 3966 0
10218 10217 10216 0
10219 10216 3964 0
1351 3964 3966 0
10218 10216 10219 0
3964 1351 10055 0
10219 3964 10055 0
1351 10056 10055 0
10218 10219 10052 0
10052 10219 10055 0
10220 10213 10209 0
10220 10209 10221 0
10209 10206 10221 0
6636 10206 6451 0
6636 6867 10221 0
6636 10221 10206 0
6442 6511 10214 0
10217 6442 10214 0
10217 6443 6442 0
6443 10217 10222 0
10222 10217 10218 0
6498 6443 10222 0
10223 10222 10218 0
10047 10218 10052 0
10047 10052 10045 0
10221 10224 10220 0
10221 6867 10224 0
6867 6324 6673 0
6673 2664 10225 0
10226 10213 10220 0
10226 10220 10224 0
10224 6867 6673 0
2664 2663 10225 0
2663 6498 10225 0
6498 10222 10223 0
10225 6498 10223 0
10225 10223 10227 0
10227 10223 10228 0
10223 10218 10047 0
10228 10047 10044 0
10228 10044 10039 0
10228 10223 10047 0
10229 10228 10039 0
10230 10231 10232 0
10226 10224 10229 0
10229 10224 10228 0
10232 10231 10040 0
10040 10231 10229 0
10229 10231 10226 0
10224 6673 10228 0
10228 6673 10227 0
10227 6673 10225 0
10037 10230 10232 0
10229 10039 10040 0
10040 10038 10232 0
10038 10037 10232 0
10233 10037 6412 0
9695 9694 10202 0
10202 10200 10234 0
9695 10202 10234 0
10234 10200 176 0
6298 6838 6620 0
6620 6838 10210 0
10235 10234 176 0
10235 176 6935 0
6935 176 175 0
9695 10234 9698 0
10234 10235 9698 0
9697 9698 10236 0
10236 9698 10235 0
10210 10211 10237 0
6620 10210 6472 0
10211 10213 10238 0
10237 10211 10238 0
10210 10237 6472 0
6922 4430 10239 0
9697 10236 10240 0
9696 9697 10240 0
10235 6935 6936 0
10241 10236 10235 0
10241 10235 6936 0
10241 6936 10239 0
10239 6936 6922 0
9696 10240 10242 0
7038 9700 10243 0
9700 9696 10243 0
10243 9696 10242 0
7038 10243 9701 0
10241 10239 10244 0
10241 10244 10236 0
10240 10236 10245 0
10246 9701 10243 0
6695 7039 9701 0
9701 10246 7266 0
6695 9701 7266 0
6695 7266 3803 0
10231 10230 10247 0
10238 10213 10231 0
10213 10226 10231 0
10247 10238 10231 0
6781 10238 10247 0
10247 10248 10249 0
6781 10247 10249 0
10230 10037 10233 0
10233 6412 6404 0
6476 10233 6404 0
6345 10249 10248 0
6345 10248 6476 0
10247 10230 10248 0
10233 10248 10230 0
6476 10248 10233 0
6564 10249 6345 0
10243 10242 10250 0
10246 10243 10250 0
10245 10236 10244 0
10245 10244 10251 0
10250 10242 10240 0
10245 10252 10240 0
10252 10250 10240 0
10245 10251 10253 0
10254 10252 10245 0
10239 4430 4432 0
6472 10237 6919 0
6919 10237 10238 0
6781 6432 6919 0
6781 6919 10238 0
6781 10249 6564 0
10254 10245 10253 0
10255 10253 10251 0
10255 10251 4432 0
10251 10244 4432 0
10244 10239 4432 0
4429 4615 10255 0
4429 10255 4432 0
10255 4615 4616 0
10256 10253 10255 0
10256 10255 4616 0
4616 3814 6671 0
10257 4616 6671 0
10257 6671 8119 0
8119 6671 6663 0
10246 10250 10258 0
7266 10246 10258 0
10252 10254 10259 0
10258 10250 10259 0
10259 10250 10252 0
10258 10259 10260 0
3801 7266 7283 0
7283 7266 10258 0
7283 10258 10261 0
10262 7283 10261 0
7283 10262 7067 0
6820 7283 7067 0
10254 10253 10256 0
10263 10254 10256 0
10254 10263 10259 0
8106 10259 10263 0
10256 4616 10257 0
10257 8119 8108 0
10256 10257 8108 0
10256 8108 10263 0
8106 10263 8108 0
8106 8108 8105 0
8104 10264 8106 0
8103 10264 8104 0
10261 10258 10260 0
10262 10261 8103 0
10262 8103 10265 0
