#!ascii version of surfaces/CC00187XX15/label/lh+rh.surf+labels-reduced.vtk
43973 87937
36983 37459 32953 0
31677 37045 31674 0
36705 37460 37461 0
25862 37312 36543 0
36989 37061 35632 0
37123 23295 28199 0
37268 36479 36997 0
36165 35449 37462 0
24348 25710 28120 0
31605 30946 30945 0
35629 31605 30945 0
28022 29975 29947 0
35547 30786 30491 0
29299 37463 36255 0
37464 36850 36165 0
23773 37435 37228 0
36529 27986 26266 0
36673 36997 36674 0
30173 31158 31157 0
37465 31158 30173 0
26205 23755 34632 0
26205 26204 23755 0
32693 36636 22645 0
22645 36636 32091 0
22626 30639 36986 0
32894 32893 34106 0
37466 37332 36119 0
37332 36120 36119 0
29160 27818 27820 0
37467 37468 36879 0
36879 37468 36877 0
29050 28290 29051 0
29051 28290 21901 0
31251 28429 28430 0
37469 37470 37471 0
35966 26147 37472 0
37473 32810 37474 0
37475 37473 37474 0
37476 28774 37477 0
23294 30700 23297 0
37478 34700 34702 0
35374 24283 24285 0
29898 29899 37479 0
28627 27709 25106 0
37480 22979 28040 0
27131 27130 33556 0
36010 37481 36056 0
35848 35850 37324 0
24112 27372 29042 0
35156 36974 36935 0
35872 35874 35657 0
36290 31854 31853 0
36246 36226 36079 0
36079 36226 37482 0
29933 23210 30876 0
31185 35374 24285 0
37204 36841 27409 0
24338 37483 37484 0
36036 34605 36920 0
32947 35376 24663 0
26203 26488 24274 0
24340 37125 24338 0
24816 33808 37485 0
36640 35495 33926 0
37042 31459 31461 0
36976 36985 37301 0
35532 35531 22212 0
30078 23593 23592 0
37015 30581 37016 0
37486 37487 29208 0
37488 37486 29208 0
34522 34521 35702 0
37236 37489 29192 0
34823 37490 37491 0
37492 22974 29532 0
34662 37493 25926 0
34662 35046 37493 0
35067 26069 31318 0
28395 37494 35321 0
37485 33808 37495 0
33380 29392 29394 0
37496 30251 30252 0
37325 36910 36946 0
32356 37497 32357 0
34959 35031 37498 0
30826 29346 29345 0
37499 26156 33062 0
26157 26156 37499 0
31502 23215 32910 0
35360 37043 30486 0
32672 36702 37500 0
36494 33727 33726 0
32873 35721 32871 0
37501 37502 37503 0
32177 26376 35621 0
25255 32855 37323 0
32855 32625 37323 0
27476 35821 35320 0
32999 28582 37504 0
32999 37504 33609 0
33042 34809 25395 0
37505 37506 36992 0
31170 32582 37507 0
35852 36610 35853 0
35497 36878 36771 0
30266 32236 32235 0
37277 36366 35991 0
25024 29144 32851 0
37508 24201 36273 0
36179 37141 36178 0
37025 34593 32874 0
33454 34348 34774 0
37509 37230 37229 0
29186 22434 22632 0
37510 35402 37511 0
35402 37512 37511 0
32196 21818 29290 0
30428 34165 36430 0
29635 37355 29742 0
27469 29738 25478 0
31300 31299 33779 0
37513 35165 37514 0
26380 26382 31577 0
26987 26208 26210 0
37515 37516 37517 0
28191 36458 22462 0
25216 27116 28705 0
28012 30274 24374 0
37518 29567 37519 0
25691 37520 37521 0
29847 35811 29848 0
35811 36017 29848 0
37522 37523 37524 0
37525 25644 25646 0
32987 25644 37525 0
37526 37527 37528 0
37063 37529 37530 0
37491 37063 37530 0
33974 37531 35857 0
37417 37532 37533 0
37533 37532 37465 0
32328 35043 31352 0
32679 31063 34385 0
23097 23099 29560 0
28235 28247 28236 0
34444 37072 37320 0
29837 29839 35120 0
33244 28612 33247 0
36457 37082 37337 0
37016 37534 37001 0
33236 37016 37001 0
34632 23755 23757 0
26509 37293 23895 0
31900 32432 37535 0
36749 25406 29675 0
28812 31978 30464 0
28812 30464 29009 0
29470 27270 24801 0
23628 30804 36400 0
37324 36532 25837 0
36791 35724 28411 0
36791 34177 35724 0
35724 34177 28134 0
30981 22368 35659 0
28589 22355 37303 0
33997 33996 37536 0
36400 30806 36931 0
37300 37110 37210 0
35429 28579 28580 0
33996 33998 35543 0
32582 29570 37507 0
36612 36674 36790 0
29700 32054 35830 0
28821 26570 35970 0
24340 37450 37049 0
28102 21786 26569 0
34162 28188 30465 0
30633 36728 30634 0
34274 34273 35569 0
33185 35164 34505 0
37133 31591 34554 0
32217 36422 37112 0
28896 28895 29702 0
35427 34801 34803 0
37225 32672 36948 0
35399 30936 37180 0
27029 37190 27027 0
37291 37537 36778 0
36778 37537 37090 0
37538 37539 37190 0
28920 29664 28223 0
37078 28001 36207 0
37540 37541 32043 0
28102 26569 36421 0
29678 31125 31127 0
29147 26339 36759 0
36734 22472 35544 0
36790 36756 36921 0
37396 36826 27677 0
24203 25760 25156 0
30636 30635 33110 0
34446 37217 36808 0
32218 32220 37210 0
30981 32430 31902 0
37434 28020 26286 0
37057 37155 37304 0
36116 35966 37472 0
36224 37542 37442 0
23821 23950 23952 0
28460 28459 35478 0
28613 28612 33244 0
36772 36383 25502 0
35096 34540 35097 0
30637 30636 32005 0
24203 24202 25761 0
36590 36592 37543 0
37109 26744 26743 0
32585 33109 34375 0
31810 32585 34375 0
36680 37544 34692 0
37222 32170 37545 0
23629 36399 28730 0
37058 26791 36926 0
36188 36857 36657 0
37546 37036 37001 0
36479 36478 36754 0
28319 32740 28320 0
37040 34463 30339 0
36090 29021 23575 0
36687 37322 24927 0
36132 25927 37407 0
36132 28580 25927 0
37314 26286 26609 0
36861 35964 35963 0
35632 35730 36989 0
37016 30581 30582 0
31778 34691 29263 0
37411 28810 25402 0
32569 24384 27956 0
29716 31978 28812 0
23882 23881 23820 0
37079 37331 37305 0
35735 25869 25868 0
25406 36824 29675 0
30642 31844 30862 0
33238 24929 36721 0
34624 34623 36919 0
34460 37547 33537 0
34612 29388 29390 0
22462 36458 37548 0
37346 36276 37190 0
30707 37549 29947 0
36067 36829 37330 0
37550 36067 37330 0
35728 35727 33574 0
26492 37551 37201 0
36523 31413 34134 0
37161 36689 32794 0
34810 28169 25953 0
29692 37552 37412 0
37553 31892 25863 0
37553 25863 36543 0
26100 26102 35290 0
35994 36853 29227 0
35543 33998 35461 0
34839 36977 36822 0
37297 31844 35537 0
37123 28199 29518 0
35460 36204 35461 0
37011 35460 35462 0
37436 35947 35946 0
33810 33809 37554 0
37008 35826 37537 0
34597 35228 25596 0
37180 36203 35399 0
36981 34375 28777 0
36823 30785 36558 0
30785 24283 36558 0
37232 32795 32006 0
28101 21784 28102 0
37555 37147 37146 0
36164 37555 37146 0
34463 32109 37397 0
36442 36441 37556 0
37137 37424 37423 0
37203 31538 34614 0
26068 24148 26066 0
24534 37335 24532 0
27480 37078 36207 0
25866 37126 31205 0
37557 36835 37558 0
34469 35700 34935 0
22567 22569 34605 0
37324 37559 36532 0
32704 32706 36427 0
36121 36120 28542 0
25365 25367 37560 0
37402 27295 37129 0
28100 26873 28099 0
27408 27407 28730 0
33176 33150 23881 0
34540 35096 32895 0
23593 36665 37561 0
35541 35543 35461 0
33258 37483 24338 0
30786 25618 29581 0
36713 30786 29581 0
24612 36829 30447 0
37408 28564 37293 0
30339 37562 30340 0
22729 26102 31852 0
35290 26102 22729 0
35061 22931 22930 0
36391 35929 37140 0
26348 30098 26349 0
29323 30388 37218 0
35830 37253 35831 0
25471 31970 36522 0
37563 33061 37564 0
24612 24546 36971 0
24532 27229 25265 0
36908 22299 33129 0
33150 35728 28318 0
24221 25597 24219 0
35543 35542 33996 0
34964 23295 37122 0
30634 36551 35174 0
24116 36240 36239 0
37317 23236 23235 0
29558 33053 25410 0
36238 37456 36239 0
32833 22087 32834 0
37088 29346 30826 0
25085 27071 25086 0
28319 33573 28282 0
37400 37565 37127 0
34803 35499 34082 0
34082 35499 36562 0
27396 27270 25882 0
37478 37566 25869 0
37132 37024 29387 0
37567 37136 37137 0
37552 37337 37412 0
30309 23844 23843 0
37113 27736 36892 0
34177 29607 29609 0
25345 25346 37568 0
37569 32108 36374 0
37570 31596 36511 0
37310 34115 37080 0
30530 37571 36410 0
22462 37548 37425 0
29778 29932 30662 0
29397 29770 35350 0
37572 36971 33997 0
36411 36410 33809 0
37223 29633 29632 0
27813 30355 37204 0
35820 28235 23231 0
27309 31713 24320 0
29393 37426 37298 0
29392 37426 29393 0
34591 36547 23593 0
37322 36827 37117 0
37297 37399 37573 0
37116 37399 37297 0
37130 33519 33521 0
37291 37574 31083 0
36766 29349 34149 0
33279 35995 33280 0
30650 37259 30648 0
34581 31084 36077 0
36835 36834 37558 0
29087 37575 34689 0
22696 27561 22697 0
33357 27011 27013 0
23297 30700 37576 0
37201 37577 30662 0
37573 37399 37578 0
37072 37179 37320 0
35822 29550 29552 0
22461 33908 25689 0
31698 24277 36525 0
36826 37579 37117 0
36693 32949 37039 0
37580 37581 37582 0
37583 37584 28721 0
37585 37503 37416 0
36167 35961 35960 0
36167 37586 35961 0
34597 25596 37587 0
26384 37108 33142 0
37199 32054 29700 0
37075 37199 29700 0
29331 30739 24563 0
33300 33179 30209 0
27220 34879 22883 0
37119 33520 33519 0
32166 37160 36567 0
34383 22306 28858 0
32170 37588 37545 0
27800 25155 25156 0
29692 37412 37081 0
37401 37127 33475 0
28079 30485 35333 0
23138 25423 28156 0
37589 37590 37591 0
36848 36126 36056 0
26509 37408 37293 0
31029 33555 31030 0
36985 37592 37301 0
37593 37594 24921 0
36342 33921 36474 0
34879 34881 22883 0
34881 36956 22883 0
30636 33110 33929 0
33487 37321 37595 0
36459 36838 27769 0
36459 35976 36838 0
36834 36451 36448 0
34133 35758 28960 0
32262 27616 37596 0
30082 37172 35021 0
30297 25156 25760 0
37118 36819 35781 0
28987 28809 28808 0
28987 28808 23738 0
37597 24610 28522 0
36404 25696 33238 0
27246 33893 37459 0
26574 27408 28020 0
28022 27860 29976 0
28022 24367 27860 0
27784 24550 29109 0
26506 23754 26507 0
32800 27228 37335 0
37016 30582 36930 0
37307 37337 37598 0
37137 37423 37282 0
36273 27214 32354 0
37428 37532 37417 0
23136 36292 25781 0
22931 23153 27798 0
22932 22931 27798 0
35025 32148 35823 0
36222 34465 34464 0
36765 30804 23628 0
36950 25503 37599 0
34106 36318 31980 0
24649 24651 37600 0
37598 37337 37552 0
34960 27057 27056 0
37601 37408 26509 0
23976 23979 30808 0
37172 32006 32005 0
27321 27991 27986 0
26871 26873 37451 0
34883 37602 22382 0
31698 24278 24277 0
31483 31485 32369 0
32106 34194 32494 0
36749 29675 30571 0
24784 24671 29560 0
30501 28614 37603 0
25799 23409 25797 0
36783 29554 33615 0
37604 30129 31479 0
36561 37605 24733 0
31460 29411 28841 0
36342 32451 22590 0
27676 37395 27677 0
23493 26097 26099 0
23493 26099 36508 0
36653 33258 24338 0
37606 37607 26691 0
37606 26691 34773 0
37399 32243 25575 0
37608 28542 28541 0
26912 37609 28477 0
27488 37610 28569 0
28569 37610 37611 0
37612 31048 27079 0
30356 25880 33313 0
33179 33181 37535 0
34623 36712 37613 0
33929 33110 33928 0
29931 30876 37209 0
29931 29933 30876 0
35682 31606 26770 0
23704 37259 37221 0
35149 36823 36784 0
25016 30464 29691 0
27916 27918 36570 0
36570 27918 33018 0
35327 35905 35449 0
25962 25614 25613 0
36737 36432 36314 0
28239 28238 36936 0
23658 23659 37270 0
37614 33798 36526 0
32770 37614 36526 0
37518 29600 36623 0
29434 22851 22853 0
37082 28192 22591 0
29046 37615 35822 0
24339 37450 24340 0
34226 37459 36983 0
37310 34226 36983 0
25882 29470 28484 0
37616 36408 36708 0
35311 23599 36850 0
34494 33813 24174 0
37294 27561 35362 0
24419 37541 37193 0
37617 37618 37619 0
29005 30633 36873 0
32246 37195 23579 0
35108 28810 37411 0
37620 37621 37464 0
25389 37622 27322 0
35513 30248 29164 0
35513 30247 30248 0
29227 36544 37312 0
29227 36852 36544 0
35955 28794 35956 0
35956 28794 36461 0
28645 36948 29311 0
29088 35738 29156 0
37623 37624 37625 0
33774 37045 33772 0
30125 22921 22923 0
27934 26888 37228 0
35297 35625 35549 0
37626 37354 27410 0
31569 30769 23259 0
31892 25864 25863 0
30350 37627 30351 0
22837 37628 25874 0
31967 37628 22837 0
37629 35142 35145 0
33996 35542 35992 0
36881 35624 34330 0
28083 34457 28084 0
22657 24494 24621 0
32333 22657 24621 0
37630 36658 36657 0
37630 37631 36658 0
36995 36996 37306 0
36605 25179 31998 0
28351 29759 29758 0
33063 33062 37632 0
37633 35743 37634 0
30578 30580 37320 0
32827 24720 23205 0
32827 26269 24720 0
22291 25882 24637 0
33970 34259 34312 0
33970 32255 34259 0
34259 32255 34260 0
32110 36221 32208 0
32916 33314 37635 0
36228 36815 36227 0
37405 37406 27869 0
25846 32318 22351 0
37636 37637 37283 0
36819 37057 35781 0
36555 37114 36556 0
37638 29737 25285 0
29737 32649 25285 0
37639 33763 35359 0
34295 35148 36567 0
36436 37175 36586 0
36436 37178 37175 0
31695 30360 24480 0
22237 22236 35031 0
27509 29274 37089 0
32380 30216 30254 0
37070 36255 37640 0
37557 37641 37115 0
24427 24429 26653 0
25836 35684 36158 0
33134 37642 37643 0
35958 28858 28860 0
37346 37435 23773 0
30573 35337 32395 0
22353 22355 23097 0
37307 36457 37337 0
35739 30937 35740 0
26568 30040 27727 0
36228 36332 36815 0
37537 35826 36303 0
37090 37537 36303 0
36993 37222 37545 0
35740 30936 35399 0
37217 34445 37076 0
22279 37346 23773 0
37462 36667 37644 0
34512 34511 35384 0
36238 24116 31574 0
32823 34133 34132 0
32823 35758 34133 0
37472 26147 35338 0
30649 37113 37257 0
34445 37413 37076 0
34445 30580 37413 0
37552 29692 37035 0
32043 33599 37540 0
36218 37645 36947 0
37067 25365 37560 0
36921 36706 36790 0
37355 32364 23242 0
36507 35509 36588 0
36507 37646 35509 0
23820 23822 34506 0
37647 27204 27452 0
24081 37648 24080 0
32054 37253 35830 0
31685 24283 35374 0
35120 33246 36941 0
29837 35120 36941 0
37268 37649 36371 0
32893 32895 22015 0
33404 32268 31169 0
29728 26132 33913 0
26132 33914 33913 0
25575 27295 37402 0
34414 28821 35970 0
34414 29478 28821 0
31902 32432 31900 0
28231 24973 37650 0
36144 28431 34415 0
36767 27028 27027 0
37535 33181 31900 0
37651 37652 36814 0
29396 29770 29397 0
34133 28960 36735 0
34505 35165 34506 0
34966 36410 37653 0
22590 32451 28177 0
24496 24495 28428 0
27107 29018 29020 0
32848 37105 35362 0
36818 35780 36853 0
30519 22461 22460 0
37654 37112 36937 0
35599 36428 32219 0
32357 37497 34960 0
36037 21785 21784 0
24079 24078 28617 0
37655 30235 35901 0
29984 37233 37656 0
25777 31772 37109 0
27407 23629 28730 0
30639 29608 29607 0
35965 35802 37148 0
36856 37414 36657 0
21790 24567 21791 0
37572 33997 37657 0
22353 23097 29560 0
33780 32713 33156 0
29517 37123 29518 0
36009 32357 34960 0
36848 31411 36221 0
35674 36511 31596 0
36847 36506 30631 0
34044 37054 34045 0
37350 37568 25346 0
25778 37227 32835 0
37658 36653 37659 0
37658 33258 36653 0
25598 25597 24221 0
28777 31566 29850 0
32042 37422 28458 0
32042 37660 37422 0
37311 36663 36664 0
26492 33156 37551 0
30631 36506 27205 0
37358 29891 37661 0
36834 37340 37558 0
30571 22602 23399 0
26348 34326 26204 0
37662 31886 37663 0
37664 37417 37533 0
36941 37427 29837 0
29837 37427 37429 0
32244 32096 32245 0
29716 36576 31978 0
35115 33141 33142 0
22656 26424 24495 0
37020 29021 36090 0
37513 23820 34506 0
35632 34938 34940 0
37113 36892 36391 0
33044 26570 26569 0
23099 35570 28819 0
36372 37137 36373 0
30663 29932 29931 0
22500 22499 28477 0
26485 36565 22260 0
37665 37208 36474 0
36474 36830 32452 0
37579 36826 37396 0
34406 37666 29810 0
37654 32215 37112 0
36864 32247 37667 0
26791 26338 36926 0
23978 24219 35884 0
37657 33997 37536 0
36984 35761 35760 0
37040 30339 30338 0
32220 32706 32705 0
36922 22500 36923 0
36278 24872 37432 0
35328 35330 37176 0
36660 35296 36140 0
35340 34132 26098 0
37539 37346 37190 0
37539 37435 37346 0
33245 33247 37668 0
33247 37180 37668 0
35625 35755 35549 0
37175 37179 37072 0
32107 22134 35328 0
37597 37400 37401 0
37669 31205 37126 0
37669 32614 31205 0
26798 33928 37303 0
37135 30502 28460 0
30531 25164 28432 0
37551 37577 37201 0
32603 30466 30468 0
32949 26878 37039 0
35833 36863 35834 0
32332 36524 36975 0
34413 34414 35970 0
37509 36941 36942 0
37154 37670 37302 0
23881 28320 23820 0
28320 23821 23820 0
24147 35546 24148 0
32863 31892 37553 0
37422 37660 37671 0
30289 28982 22845 0
28547 36229 24946 0
24946 36229 37672 0
24391 26573 26572 0
24391 27812 26573 0
35655 36596 36449 0
37536 33996 37673 0
25598 24221 28245 0
34966 37554 36410 0
27800 25156 30296 0
26798 37303 22354 0
23881 33150 28320 0
35158 37300 29348 0
36421 37674 30710 0
37675 23921 24078 0
31779 34691 31778 0
26099 36735 36501 0
36735 28986 36501 0
37676 37677 31096 0
37678 35097 34540 0
31567 37678 34540 0
36873 30633 30632 0
27014 30639 22626 0
37416 37428 37417 0
34943 30569 34402 0
37325 37457 37326 0
37457 22300 37326 0
24927 37679 36688 0
37680 22932 24339 0
37681 35497 25619 0
37554 33809 36410 0
24339 22932 37450 0
37673 33996 37682 0
33996 35992 37682 0
32623 32824 32823 0
35800 26205 36761 0
29852 29851 31645 0
25423 23137 37191 0
26577 22528 29163 0
22528 24115 29163 0
37173 25836 36157 0
30078 34591 23593 0
37398 37683 30339 0
37570 37684 31596 0
37685 37317 37318 0
37419 37653 37571 0
29173 35908 29174 0
34839 35052 36977 0
35052 24082 36977 0
36297 37605 36561 0
29036 37224 26132 0
29036 37404 37224 0
36037 36235 21785 0
37686 30233 30235 0
26569 30041 36421 0
22883 36956 36957 0
27767 37460 29299 0
36988 33380 33377 0
37146 35802 36164 0
26742 37310 26740 0
26742 34226 37310 0
27214 24201 25155 0
22291 27396 25882 0
33379 33378 34044 0
35735 25868 29992 0
37124 27586 37368 0
22707 26507 22708 0
37117 37687 37322 0
36410 37571 37653 0
30252 23409 24188 0
37688 30252 24188 0
29778 30662 37577 0
29518 28199 37576 0
29518 37576 37689 0
33310 23729 23728 0
37439 35054 37177 0
36931 30806 35553 0
35632 34940 35730 0
29838 37429 37503 0
37690 32348 36956 0
36654 25345 37691 0
30642 37692 36380 0
36676 35840 36850 0
36735 28960 28986 0
29298 26519 29280 0
29298 29280 23684 0
36574 29050 29006 0
22100 32848 22101 0
36116 37237 36115 0
37693 36565 26485 0
37665 36946 36913 0
36944 36946 37665 0
26572 28126 37236 0
29637 37170 32157 0
37170 31796 32157 0
37129 30296 21846 0
37129 26240 30296 0
35813 33461 37694 0
26871 37695 37696 0
29632 37697 37698 0
22896 22894 32261 0
28376 26266 27381 0
33187 26266 28376 0
31852 26102 37699 0
26102 37049 37699 0
33179 37535 37700 0
37558 37340 30820 0
36862 36861 35963 0
30530 36410 25164 0
30289 24158 33194 0
29155 37701 23000 0
27882 30345 30382 0
36946 36945 37325 0
29411 32604 32353 0
28080 28079 35333 0
37702 26484 37703 0
37704 29266 37705 0
33880 29925 36516 0
36516 29925 26143 0
36408 37706 36409 0
36868 34547 36678 0
28662 28661 37707 0
37601 26509 37299 0
27691 36768 27824 0
37379 34482 37380 0
33247 36203 37180 0
36063 35583 35653 0
37708 34236 32431 0
27799 37709 26871 0
37609 26912 37710 0
27499 27880 27881 0
26141 33438 37221 0
37124 37368 37711 0
36922 37311 36664 0
37049 37451 37699 0
37292 31083 31082 0
37654 36937 26877 0
33363 32014 30994 0
36011 25822 32346 0
25822 23977 32346 0
34460 31645 37547 0
35149 30612 32244 0
37309 30579 30578 0
36960 37166 37019 0
32663 33462 35813 0
37712 37467 36879 0
28696 26488 26486 0
37131 37537 37291 0
37008 37537 37131 0
22378 36967 22169 0
37149 37713 37150 0
37714 37715 33860 0
33885 37244 37377 0
37716 36933 37717 0
36144 36420 30710 0
37681 36876 35497 0
37209 30876 30878 0
34700 37478 37718 0
37226 36927 36531 0
25454 36525 26899 0
31170 35591 32582 0
22267 37203 36979 0
37719 37720 37721 0
29049 37615 29046 0
25580 25581 37722 0
30486 37452 29875 0
29875 37452 37065 0
37446 34162 24872 0
31640 26335 26857 0
37416 37503 37428 0
28167 31127 28430 0
31185 24285 31183 0
24285 37723 31183 0
27225 24288 24287 0
25329 32948 36557 0
25329 25331 32948 0
29115 36814 37144 0
32863 37724 31890 0
35561 37559 37324 0
24081 24079 37716 0
27019 37725 27018 0
27479 37078 27480 0
37726 33256 37658 0
37493 33456 23465 0
36165 37462 37644 0
37727 37728 37729 0
37729 37728 37730 0
35829 37731 35546 0
37701 26085 26084 0
37230 37668 37361 0
37026 37230 37361 0
37732 37733 37734 0
34380 37735 34987 0
33266 37735 34380 0
29028 37736 37737 0
30580 30579 37413 0
37738 37739 37740 0
36516 37685 33880 0
30173 31157 30174 0
37114 24084 36556 0
35331 37741 37742 0
33789 33175 30824 0
26802 37743 26803 0
34573 36173 32875 0
37618 23758 37744 0
37235 28126 37745 0
37746 37747 37748 0
31810 34375 36981 0
24680 30857 31533 0
36205 37728 36204 0
37749 37750 37751 0
37751 37750 34074 0
30772 37752 37753 0
34564 36396 34565 0
31732 24071 31803 0
31732 31803 31731 0
37561 30528 37754 0
37176 28105 32107 0
37197 37572 24613 0
37755 37756 37757 0
37084 37758 37226 0
30250 30249 31262 0
34961 30808 27055 0
33237 37759 37760 0
31116 36936 37514 0
27517 31379 26862 0
25401 27839 25402 0
29728 33913 37133 0
37716 24079 36933 0
37492 37761 22972 0
28955 22600 29674 0
25631 30840 27293 0
37632 37564 33063 0
37762 31740 31742 0
27345 35837 34767 0
31587 37763 30904 0
33606 33605 37418 0
22422 33431 22423 0
37764 37765 25776 0
21901 21903 32731 0
37565 37766 28549 0
28053 37445 23128 0
28658 28985 36768 0
37203 37767 31538 0
37768 37136 37567 0
35062 37769 22931 0
30118 37308 37178 0
37770 37771 37772 0
31972 33872 29634 0
35833 35621 32578 0
27453 36615 37773 0
22153 37774 37775 0
22153 37775 30795 0
37319 37309 30578 0
36993 37545 36992 0
37776 37777 37387 0
37778 37550 37330 0
31928 37779 31015 0
37780 37781 35713 0
26661 26660 37782 0
26240 27800 30296 0
37783 28618 30212 0
26168 26248 24103 0
26877 37039 26878 0
29771 32065 35884 0
24927 37322 37687 0
33044 26569 21786 0
37211 37187 30970 0
34132 26096 26098 0
37210 32220 36678 0
32395 35337 29396 0
35337 29770 29396 0
36984 36471 36473 0
37784 37785 37786 0
34463 37398 30339 0
37294 37105 26912 0
37608 28541 37787 0
23136 36564 36292 0
28102 21784 21786 0
31685 36558 24283 0
36120 21790 28542 0
27839 37411 25402 0
36373 36478 36371 0
28617 24078 28865 0
27616 32261 35852 0
29701 29700 35830 0
30749 36237 31686 0
36778 37090 36779 0
30865 31844 37297 0
37788 24903 28949 0
37513 34506 35165 0
22931 37769 23152 0
22368 37789 35659 0
30981 35659 32430 0
35269 22778 35823 0
22778 35025 35823 0
33029 32262 37596 0
37050 28477 35678 0
23976 30808 34961 0
37702 26485 26484 0
36853 36852 29227 0
37685 36516 37317 0
35850 35561 37324 0
37587 25596 25598 0
37320 30580 34445 0
30519 33908 22461 0
35460 37790 36205 0
32623 35340 36568 0
36568 35340 26433 0
36435 34598 30116 0
34376 37133 34554 0
36420 36421 30710 0
22353 29560 24671 0
31945 30529 37206 0
37791 36704 36921 0
36755 37791 36921 0
28859 25834 37173 0
35781 37057 37338 0
36218 37295 37645 0
26174 33409 26175 0
37341 37792 37342 0
36433 37447 29166 0
33985 35372 35371 0
27220 34880 34879 0
37244 33885 36175 0
22499 22697 26911 0
36032 36743 37646 0
37429 37428 37503 0
22306 28859 28858 0
32034 33194 31888 0
37205 36754 36478 0
35675 31596 31593 0
35635 34663 34662 0
36761 26205 34632 0
36572 22930 37733 0
36994 28580 36132 0
37419 37571 30530 0
27451 27988 27452 0
37210 36678 37300 0
34865 37238 37237 0
29702 29701 35635 0
27346 34767 33987 0
36421 30041 37674 0
28282 28281 32740 0
37572 37657 37793 0
37794 32356 32355 0
37454 33885 37377 0
28645 37795 36949 0
36948 28645 36949 0
36779 36332 36228 0
37061 35631 35632 0
37253 33985 35831 0
36507 36032 37646 0
37796 37693 26485 0
22386 30308 36045 0
37041 28231 37797 0
37596 27616 27614 0
34554 25139 34376 0
37319 30578 37320 0
27453 27452 36552 0
37155 30970 29246 0
28614 26975 37603 0
29825 37458 37325 0
36945 29825 37325 0
35061 22930 36572 0
32109 37798 37799 0
37462 35449 36668 0
35449 35905 36668 0
21792 21791 24001 0
32953 33893 33895 0
37800 36425 37801 0
22367 36554 37789 0
37572 37197 36971 0
36704 33166 36705 0
28430 28165 28167 0
23919 23921 37802 0
37417 37664 37803 0
27691 27690 30074 0
35739 36472 30937 0
36292 36564 37693 0
32893 22015 32193 0
28458 37422 25865 0
28318 33574 33573 0
30076 34880 27220 0
37804 37687 37117 0
34597 37587 34193 0
32333 32332 22657 0
37717 36933 33665 0
37623 37805 37723 0
34960 37497 32345 0
35461 36204 35541 0
34880 30076 37138 0
37001 37036 29694 0
37117 37579 37804 0
37464 36165 37620 0
37806 37807 36268 0
37808 37809 37810 0
29770 35337 29771 0
28580 36994 35429 0
33179 36789 30209 0
37232 37811 32795 0
22299 22298 36914 0
26141 37221 26174 0
23703 37314 26609 0
22953 29037 22954 0
37124 37711 37560 0
35521 34940 34941 0
28246 37722 37419 0
30531 28246 37419 0
29601 37518 37812 0
29601 29600 37518 0
35754 35266 35268 0
36433 24815 24814 0
34523 24403 26607 0
27071 34400 27680 0
25927 28869 37407 0
32276 37813 37105 0
22575 28420 32259 0
37665 36913 37208 0
33310 36737 23729 0
27680 29632 27587 0
27680 34401 29632 0
32097 30612 30611 0
37140 37113 36391 0
36431 36432 36737 0
37105 37813 37710 0
28860 28859 37173 0
29637 32006 37170 0
37814 34353 37815 0
30270 35159 36105 0
31686 36237 36236 0
30329 37717 33665 0
36204 37728 37727 0
35801 24383 24382 0
31538 37767 37626 0
37626 31537 31538 0
35965 29164 25894 0
24925 37687 37816 0
37173 36157 36159 0
22368 22367 37789 0
32355 34274 37794 0
37794 34274 37817 0
28235 37156 28249 0
28247 28235 28249 0
37557 37115 36835 0
28859 35848 37324 0
31783 33789 30824 0
30208 30211 30582 0
37649 37268 33967 0
29263 34691 29264 0
29299 33168 37463 0
30531 28432 28246 0
36768 30074 28658 0
27691 30074 36768 0
26084 37818 23000 0
37245 36175 36052 0
37424 22460 37425 0
33126 37540 33599 0
31460 32604 29411 0
37785 36478 37136 0
27797 36695 33520 0
23152 37769 37819 0
33699 23152 37819 0
31172 37818 31173 0
23185 37820 37353 0
34303 33487 37595 0
30041 37821 37674 0
24274 27628 24272 0
27290 26908 37192 0
26908 26909 37192 0
37059 37822 34090 0
36278 31978 31977 0
37418 36609 37408 0
37823 29838 37503 0
37399 37402 37578 0
33515 37599 37824 0
37397 32109 37799 0
35533 37301 36388 0
37649 37216 36371 0
29444 29443 37439 0
23977 25822 24414 0
26798 22353 24670 0
35659 37708 32431 0
37789 37708 35659 0
31890 37825 30952 0
37425 37283 37423 0
37450 22932 27799 0
33109 32585 32586 0
37149 37216 37713 0
25259 36089 23575 0
37561 37826 23593 0
37601 37299 37403 0
32825 27313 27312 0
26100 35290 22378 0
29635 29742 29600 0
22500 36922 36664 0
34866 37237 36116 0
36818 37118 35780 0
37246 37827 36816 0
33438 26141 23702 0
36188 35826 37008 0
36947 37828 29018 0
23875 35954 35956 0
28022 29976 29975 0
32344 32346 23976 0
30936 37829 37181 0
37830 37831 37625 0
37811 37232 32044 0
26103 35884 24219 0
37832 37833 34483 0
33596 36653 36654 0
37709 33700 37695 0
33700 37441 37695 0
27318 25686 31522 0
37342 30485 35937 0
28543 21792 27093 0
23843 30270 30269 0
29932 30663 30662 0
26349 33188 33220 0
37701 26084 23000 0
29947 37549 35668 0
29947 35668 22146 0
36098 36991 33486 0
34804 37050 37834 0
22353 24671 24670 0
37222 32171 32170 0
37484 37680 24339 0
31595 31594 37835 0
37333 31595 37835 0
35149 32244 36823 0
36823 32244 30785 0
37834 37050 35677 0
37226 37295 35815 0
36205 37836 37837 0
37438 37437 37538 0
36778 37838 37291 0
30207 35226 37839 0
36958 30207 37839 0
37574 36234 31083 0
37574 37838 36234 0
35164 37840 37841 0
35164 33184 37840 0
34402 37842 34401 0
37842 34402 30569 0
31528 31730 28205 0
36144 37843 36145 0
37285 37268 36673 0
29600 29742 36623 0
31136 30071 30073 0
33591 30279 30278 0
36967 36573 22169 0
37844 29838 37823 0
33699 37819 37845 0
28122 27630 24973 0
36047 36139 36138 0
31486 37846 37847 0
36205 37790 37848 0
29851 29853 24611 0
28432 28236 28246 0
37665 33921 33214 0
29156 31443 23954 0
37257 35166 30650 0
23209 26403 23211 0
23374 26403 23209 0
29100 37849 30271 0
36914 32714 33128 0
32758 32714 36914 0
37850 37260 37261 0
26132 37224 33914 0
30770 31173 37818 0
37851 37160 32166 0
37291 37838 37574 0
30465 36278 37432 0
36306 26992 29982 0
37326 22300 22297 0
27860 22721 37852 0
32749 28613 29839 0
31946 27204 37647 0
26986 26837 37005 0
37853 37854 37590 0
37855 37854 37853 0
37855 37853 37856 0
37250 30380 30127 0
36687 29938 29937 0
34964 23296 23295 0
34586 23585 31766 0
37744 37857 25411 0
35727 36549 37858 0
31096 37677 31097 0
33495 34295 26426 0
27104 35626 27106 0
34187 37560 37711 0
33538 37536 37673 0
35378 33967 37859 0
36141 35549 35754 0
35296 35549 36141 0
35175 35318 31846 0
36950 37599 33514 0
37599 33515 33514 0
31172 23000 37818 0
36059 35109 36087 0
22210 22697 22498 0
27547 37542 36224 0
29344 33880 37685 0
26568 28821 30040 0
36178 37569 36374 0
34454 27712 36437 0
37019 37167 36660 0
35334 33029 37596 0
22003 37860 36427 0
22974 22973 29532 0
29049 34588 37615 0
36318 36317 37808 0
33141 33753 26384 0
33328 26100 26147 0
37861 27767 24198 0
24613 37572 37793 0
25119 28428 24330 0
37222 36842 32171 0
37862 32247 32246 0
32382 37863 32276 0
30507 30509 32037 0
36623 29743 37864 0
29686 29685 37865 0
35630 30139 30141 0
23047 31137 31165 0
29479 37866 29426 0
29075 37867 35455 0
24321 24610 24315 0
37827 37058 36816 0
36838 35125 37200 0
26375 32577 26376 0
26871 37696 26872 0
28289 27711 26113 0
35148 26163 32166 0
30330 33884 33885 0
37414 37630 36657 0
31189 32026 31947 0
37868 33226 23160 0
23160 33226 23158 0
27480 36207 30018 0
36207 22134 30018 0
30611 29579 29288 0
26015 37133 34376 0
37869 32756 29065 0
22904 22906 28769 0
37314 37434 26286 0
37870 37673 37682 0
37681 35755 36876 0
37871 37872 27312 0
30462 32449 30126 0
24021 32143 24019 0
24021 32144 32143 0
23152 33698 23153 0
35791 28526 36020 0
29044 34317 24367 0
37873 34109 33427 0
37465 37532 31158 0
36753 37874 35406 0
33537 37547 33538 0
37425 37636 37283 0
37500 22245 37875 0
27487 23280 23279 0
33265 34816 37338 0
37876 36532 37559 0
32603 31460 30877 0
35961 35729 25906 0
37877 30323 30325 0
36919 37878 37107 0
37676 31096 32240 0
37415 37585 37416 0
33921 37665 36474 0
36995 37306 35752 0
37879 24730 24729 0
31443 35738 31698 0
26634 32180 28636 0
34604 22603 37187 0
36665 37206 37561 0
37479 36603 37880 0
22246 22245 32661 0
37308 37309 37179 0
37547 24613 37793 0
37881 33702 37882 0
26899 27897 30344 0
29444 37439 37358 0
37150 37424 37137 0
33115 31012 37883 0
33115 37884 31012 0
37336 37426 29392 0
31310 31309 25469 0
31306 37020 31307 0
31980 36318 32124 0
32615 29346 31205 0
32719 32721 37885 0
37368 37886 37711 0
37762 37887 37888 0
37889 29855 37890 0
22298 29855 37889 0
24952 32088 33825 0
36458 36752 37548 0
29344 37685 37318 0
32244 30612 32096 0
30582 30211 36930 0
29331 30740 30739 0
31568 37891 27172 0
29796 29086 27935 0
31116 37514 31117 0
35755 37892 36879 0
32104 32103 34657 0
37893 25169 25629 0
30653 30652 32730 0
28534 34231 30522 0
22370 33368 22371 0
22370 33448 33368 0
24391 24393 27812 0
37894 36215 37895 0
23048 31165 37440 0
37896 37897 37740 0
30947 28185 36844 0
30800 30802 37405 0
27774 23175 37898 0
22162 23175 27774 0
36310 37159 37707 0
37899 37900 37901 0
31624 37751 34074 0
29113 31347 37902 0
26913 22559 22561 0
26349 33189 33188 0
37674 30711 30710 0
36919 34623 37903 0
26936 34442 22311 0
37838 36778 36777 0
29718 36576 29716 0
37600 24651 37904 0
33199 33543 37905 0
28522 37400 37597 0
36732 37503 37585 0
27796 33016 37906 0
37907 37908 37909 0
32005 33929 22029 0
32791 34575 28428 0
24158 22845 22844 0
29473 29472 30199 0
33080 37164 33081 0
37281 37164 33080 0
37615 35823 35822 0
21896 37909 37910 0
37907 37909 21896 0
37911 21896 37910 0
37912 37913 34075 0
27179 23473 23472 0
25651 29006 29051 0
35333 30485 30484 0
26790 22603 22242 0
35836 36039 37914 0
27275 37737 37736 0
37785 37136 37768 0
31411 32208 36221 0
34414 33123 29478 0
37556 30897 36442 0
27799 26871 37451 0
26488 36464 24274 0
37398 37397 37799 0
30118 37178 36436 0
29728 26131 26132 0
36045 30308 35560 0
30519 30518 33908 0
37009 27403 24877 0
35740 30937 30936 0
37285 36673 36612 0
28859 37324 25834 0
37592 36388 37301 0
29345 29344 37318 0
22355 22354 37303 0
37417 37803 37415 0
36783 36782 36557 0
34804 34802 37050 0
29324 37570 36511 0
27313 32623 27410 0
37792 30485 37342 0
27839 29372 37411 0
22367 36555 36554 0
36958 37839 37808 0
29560 23099 28819 0
37876 36533 36532 0
37295 37915 37645 0
37567 37137 37282 0
34547 37242 36678 0
27616 35852 27615 0
37623 37625 37916 0
37205 36478 37784 0
37239 34464 37240 0
32043 37541 24419 0
37620 36165 37644 0
22899 22898 25904 0
37917 30322 30321 0
25438 28987 34847 0
26378 24196 26244 0
37879 29984 37656 0
28859 22305 35848 0
27037 31097 25215 0
37683 37398 37799 0
34596 34598 36460 0
22777 34348 33454 0
37681 35754 35755 0
26505 28934 24774 0
32741 35380 37842 0
37842 35380 37697 0
31172 22998 23000 0
27727 30041 26569 0
36937 37039 26877 0
24116 36239 29155 0
37625 37742 37916 0
35372 33987 34767 0
37221 33409 26174 0
22602 30380 23398 0
29839 37844 36864 0
35755 36879 36876 0
37509 37229 36941 0
37229 31159 36941 0
28821 34443 30040 0
30362 25423 24318 0
21790 36120 24567 0
37311 37918 37919 0
33044 35970 26570 0
31273 37904 34353 0
34353 37904 34354 0
29743 36623 29742 0
37920 29265 29264 0
34961 34960 32344 0
37435 37539 37280 0
32352 34464 37239 0
27401 37921 25921 0
27401 27403 37921 0
35052 28211 24082 0
36479 37268 36371 0
22267 37767 37203 0
22569 22603 34604 0
34441 34131 35333 0
37922 30071 31136 0
36588 35509 35511 0
27767 24199 24198 0
37923 37061 36991 0
35836 35758 36039 0
22296 22015 35096 0
34326 28257 26204 0
36230 35930 36390 0
25690 33904 36342 0
35990 31097 37924 0
36675 32023 35692 0
27553 37925 36667 0
30707 29947 29975 0
37518 36623 29567 0
25423 37191 24318 0
33092 33733 35873 0
31779 36681 34692 0
28319 28282 32740 0
28460 30502 28461 0
30270 37158 35159 0
37926 37927 37794 0
37794 37927 32356 0
27245 36838 37200 0
29838 29837 37429 0
32521 37928 36743 0
37497 31853 32345 0
37497 36290 31853 0
37929 30270 36105 0
29932 29778 23208 0
37930 37552 37035 0
26348 26204 26206 0
37931 37306 36996 0
37216 32703 37713 0
32703 22460 37713 0
27029 37438 37190 0
37438 37538 37190 0
37723 24285 24284 0
23844 30309 30308 0
36706 37461 36613 0
30863 37297 37573 0
34274 35569 36845 0
37150 37713 37424 0
37693 36564 36565 0
30141 27757 35630 0
37105 37710 26912 0
30209 36789 30210 0
37418 37408 37601 0
25863 25862 36543 0
35823 37615 25430 0
21786 21785 33043 0
37728 36205 37837 0
37730 37728 37837 0
23835 25345 36654 0
37556 30895 30897 0
35831 35371 34664 0
35371 35045 34664 0
35831 33985 35371 0
23843 30268 30309 0
30555 30557 31757 0
37068 34691 34693 0
35958 34383 28858 0
37932 34150 29349 0
36236 36037 36314 0
30116 30517 30117 0
37554 34966 34618 0
37933 37934 37205 0
22511 24275 22972 0
31596 37684 31594 0
37156 35820 29937 0
37830 37624 24284 0
22378 35290 22728 0
35569 34150 37932 0
34443 37935 30040 0
34960 32345 32344 0
27345 34767 27346 0
37171 31796 37170 0
36671 29874 36441 0
36441 29874 37936 0
37215 37631 36584 0
32261 36610 35852 0
37540 32631 37541 0
26484 36063 37703 0
35458 27755 30141 0
27755 27757 30141 0
26096 34133 36735 0
32981 32983 32586 0
28809 26909 25403 0
25367 37124 37560 0
37741 37656 37916 0
37709 37695 26871 0
37937 31691 37938 0
36205 37848 37836 0
37939 25939 35325 0
34109 25106 25084 0
37314 37315 37940 0
37941 37942 37232 0
37940 37315 37943 0
28461 33441 28459 0
37308 37179 37178 0
27410 31537 37626 0
25691 37521 37944 0
37789 36554 37708 0
35531 27561 22696 0
26598 31478 31401 0
36705 33168 37460 0
35887 30210 26292 0
37143 36543 36542 0
27246 27245 37200 0
37743 37874 37598 0
37223 29632 37698 0
37355 29635 29599 0
37356 37355 29599 0
37232 29637 37941 0
36432 36236 36314 0
37489 37236 30450 0
27544 34134 31413 0
22134 22133 35328 0
24731 24730 32726 0
26339 26792 28794 0
37945 33516 37946 0
34459 28084 34457 0
31431 25814 31846 0
32464 32463 37791 0
35547 25618 30786 0
28934 37947 37334 0
24002 27091 27093 0
29742 37355 23241 0
32124 37481 36010 0
35806 36010 36056 0
34622 36712 34623 0
23257 23259 30770 0
37948 37893 25629 0
26378 24108 24348 0
24832 36863 35833 0
35863 36623 37864 0
35268 37949 37950 0
31412 37798 32109 0
37421 36059 36087 0
37951 37216 26746 0
33310 36431 36737 0
37694 33461 26308 0
34458 37952 34459 0
25357 37394 37953 0
37954 28356 22296 0
25767 27453 37773 0
34415 37843 36144 0
37358 29894 29891 0
24978 23629 27407 0
24978 23627 23629 0
37955 37956 37366 0
33615 37394 36782 0
31183 28490 30112 0
30707 29975 37957 0
37958 37959 33256 0
36717 37908 36716 0
26207 26205 35800 0
34850 26741 29230 0
25439 29331 28061 0
32893 32193 37960 0
26739 27247 26742 0
30071 37918 30072 0
37903 37878 36919 0
37496 30252 29687 0
35954 23875 37961 0
29249 37962 29250 0
37588 37963 37505 0
30076 35274 35273 0
29728 26015 26013 0
33515 37824 33518 0
37215 36658 37631 0
37439 37177 37358 0
29607 36986 30639 0
35788 35442 36021 0
23882 23820 37513 0
37964 30388 30387 0
27709 28626 33220 0
37965 37966 37967 0
36917 37965 37967 0
30345 25452 26899 0
37595 37321 37109 0
37745 28126 28020 0
26485 37702 37796 0
34348 34347 37968 0
37969 37244 33294 0
28579 35635 25925 0
36239 37970 37701 0
29155 36239 37701 0
33753 35930 36230 0
26873 28100 37451 0
37451 28100 37699 0
37971 35371 30031 0
37058 37827 37972 0
37973 37974 27013 0
27588 37442 37886 0
29265 37920 28211 0
29265 28211 35052 0
28914 31620 37975 0
29047 31480 29048 0
24595 33000 31916 0
24595 28581 33000 0
27478 30018 28106 0
22087 32833 22787 0
37121 28542 37608 0
37225 36948 36269 0
37341 32046 37792 0
35570 32813 28819 0
34697 37436 35946 0
23489 23491 33776 0
36121 28542 37121 0
36418 26525 33192 0
37145 37888 37976 0
37189 37187 22603 0
32744 32521 36742 0
26175 31090 31089 0
26175 30419 31090 0
35509 37928 35510 0
36144 30710 28431 0
35268 37977 37949 0
37791 32463 37978 0
29670 25165 37979 0
29478 33123 27059 0
34510 34512 36266 0
32266 36338 34335 0
29250 25685 25687 0
37592 36389 36388 0
21966 27320 33187 0
36438 37980 27104 0
31372 22762 29594 0
37981 34967 37982 0
37790 35460 37011 0
22657 32332 36975 0
24570 24746 37983 0
25413 25412 28239 0
35541 36204 36050 0
37984 37934 37933 0
37056 36022 37985 0
32830 35735 35734 0
31486 31292 37846 0
37986 29297 33163 0
36829 36066 30445 0
36039 32823 37255 0
36618 34804 37987 0
37988 29320 28951 0
28950 37988 28951 0
37242 34547 37989 0
36999 32515 33567 0
27320 36529 33187 0
37990 37251 37052 0
37982 37991 37981 0
35161 32547 22808 0
31855 37992 31856 0
37507 29570 29941 0
32248 36603 37044 0
33596 36654 37691 0
24929 33238 24930 0
23701 23139 24405 0
28905 24957 37993 0
37234 32350 35196 0
37234 30618 32350 0
30252 37688 37994 0
36471 37995 36472 0
30092 36556 35091 0
37996 34807 34965 0
32835 37227 37997 0
32262 32261 27616 0
33087 37066 37067 0
37052 36707 26401 0
37998 34025 28099 0
30508 35883 31008 0
23811 29664 22955 0
25776 37765 25619 0
33746 32566 34144 0
32578 32577 37999 0
38000 26292 38001 0
26289 38001 26292 0
33793 37544 36680 0
24611 37778 37330 0
29853 37778 24611 0
35062 38002 37769 0
27812 30353 27813 0
38003 34378 38004 0
37233 34854 37805 0
29489 32189 31452 0
33614 33517 33615 0
28482 34698 34699 0
28482 28481 34698 0
28406 37874 28407 0
35334 37596 27614 0
35334 27614 34587 0
38005 35656 33440 0
33029 30902 33030 0
30902 35336 33030 0
37120 36119 36121 0
37121 37120 36121 0
37768 37567 38006 0
37567 38007 38006 0
34935 31819 34936 0
38008 32157 23549 0
35625 36183 35755 0
36262 30940 36148 0
27114 22781 34863 0
36266 37004 34510 0
35704 32560 31251 0
32297 38009 31402 0
32297 38010 38009 0
36708 28287 35354 0
38011 37286 38005 0
35335 38012 38013 0
38014 36716 37908 0
34701 38015 26049 0
23258 26028 23259 0
37336 23338 36773 0
31938 25635 34461 0
30970 37187 29244 0
35800 30380 38016 0
38016 30380 37250 0
33929 28366 22029 0
27547 38017 37542 0
38018 38019 38020 0
38020 38019 38021 0
31212 33109 32586 0
31587 31586 31660 0
31562 28012 28013 0
34800 34804 35499 0
36611 36613 37461 0
37658 30036 37726 0
28243 31877 36049 0
28241 28243 36049 0
33340 32842 29338 0
30010 37097 30008 0
24759 24760 38022 0
38023 34700 37718 0
37676 32240 26177 0
38024 38025 38026 0
35901 37115 37655 0
37939 38027 29962 0
37939 29962 25939 0
30919 34550 29268 0
30172 38028 23211 0
25033 25030 38029 0
31713 28523 24321 0
27478 22707 38030 0
25086 25365 37066 0
35724 28134 22477 0
37427 37532 37428 0
38031 37702 37962 0
24189 34239 34238 0
30458 30459 30179 0
24220 38032 32494 0
32701 37721 32702 0
32574 35678 38033 0
35626 24382 24384 0
38034 28239 36295 0
32679 34385 38035 0
38036 38037 38038 0
37736 29028 37827 0
33311 34076 34078 0
37161 37811 32044 0
38039 35590 32270 0
32270 35590 35591 0
28021 22145 22144 0
38040 30870 30869 0
38041 38042 38043 0
36312 38044 36787 0
38044 30375 36787 0
25843 32870 33897 0
35227 26191 35215 0
35437 35227 35215 0
32827 23205 35787 0
35464 37949 38045 0
30357 24158 24159 0
38046 32776 34137 0
32776 29329 34137 0
30716 36245 33859 0
33859 36245 37714 0
23978 38032 24220 0
37405 27869 30800 0
28911 26095 23393 0
33665 30330 30329 0
38047 27347 27350 0
38048 31926 26297 0
26296 38048 26297 0
29455 27707 27843 0
38049 38050 34218 0
33000 32999 31917 0
29809 29811 34920 0
29811 37360 34920 0
37290 38051 37291 0
37291 38051 37131 0
25734 35453 38052 0
32728 26776 31501 0
23158 33697 25150 0
33043 35970 33044 0
38053 32660 36263 0
32806 32858 32628 0
37729 37730 36832 0
29320 27173 29996 0
33679 26748 32040 0
35496 38054 36990 0
34342 34750 36570 0
34342 22640 34750 0
34750 22640 26929 0
35182 37456 31032 0
34604 37187 37211 0
31946 30631 27204 0
30329 38055 37717 0
37626 37767 22266 0
37246 37736 37827 0
37021 36237 30749 0
37649 26746 37216 0
38056 37376 37377 0
22730 23503 23372 0
35598 34985 24920 0
37995 37296 38057 0
28215 23691 38058 0
23691 23690 38058 0
37450 27799 37451 0
37713 22460 37424 0
37545 37505 36992 0
37931 25158 25321 0
32823 34132 32623 0
37460 33168 29299 0
37784 36478 37785 0
37214 36145 27275 0
37811 37161 32795 0
37136 36478 36373 0
25869 37566 22100 0
23690 35990 35595 0
35990 37924 35595 0
32171 23181 32172 0
37242 37989 37243 0
37373 36612 36614 0
37035 37037 38059 0
22266 37767 22267 0
37588 37505 37545 0
37343 35569 37932 0
34046 33379 34044 0
31357 37304 34110 0
37930 37598 37552 0
36675 35692 35840 0
23882 37513 28238 0
36941 31159 37427 0
33092 35872 33091 0
38060 36141 35268 0
33597 30483 37792 0
37554 38061 33810 0
36914 22298 37889 0
36472 37995 33539 0
38062 37724 37143 0
33756 38062 37143 0
37951 26746 26748 0
37825 34008 30952 0
33881 29926 29925 0
31523 37703 35898 0
33179 26290 36789 0
32005 22029 26906 0
37615 34588 25431 0
36598 24959 37277 0
36226 30233 37686 0
31537 32623 36568 0
38063 34441 38064 0
36622 35301 35300 0
36921 36704 36706 0
37962 37702 37703 0
32740 28281 23950 0
37676 29456 37677 0
37718 37478 35735 0
35735 37478 25869 0
35727 37858 33574 0
37243 37932 29349 0
37282 37423 37283 0
33156 32050 37551 0
36615 37041 37773 0
36021 27400 24420 0
36021 24420 37194 0
37233 37623 37916 0
37656 37233 37916 0
27630 37650 24973 0
37456 36238 31573 0
33409 30419 26175 0
29945 37171 37172 0
26803 37930 38059 0
24338 37484 24339 0
23692 25215 35990 0
37501 37503 36732 0
27877 32582 35591 0
37640 38065 37070 0
25619 37765 37681 0
30082 29945 37172 0
37243 37343 37932 0
37989 37343 37243 0
36183 37892 35755 0
37927 37926 36290 0
34193 37587 34194 0
37154 29246 29245 0
25503 27925 27927 0
33186 36475 37840 0
32891 31757 35595 0
28521 32826 28522 0
37646 37928 35509 0
33440 35656 28459 0
30484 34441 35333 0
36702 38066 37500 0
31424 30521 27881 0
36599 36403 38067 0
27661 24278 35738 0
37859 33967 37268 0
34885 29796 27934 0
28933 37947 28934 0
36078 36777 36228 0
37129 21846 21845 0
37541 32631 37193 0
31154 38022 31605 0
22245 22247 37875 0
37609 35678 28477 0
38068 37290 37292 0
32096 37091 32245 0
37478 34702 37566 0
37826 28998 23593 0
30331 30330 37454 0
34401 37697 29632 0
27674 27473 38069 0
34623 37613 37903 0
24669 24681 25780 0
23153 33698 37709 0
32356 37927 37497 0
29444 37358 37661 0
32005 26906 37172 0
37587 25598 34194 0
37925 27553 38070 0
34816 38071 38072 0
36448 38073 37340 0
37043 37331 30486 0
37331 37452 30486 0
38074 38075 33354 0
33355 38074 33354 0
37926 37794 37817 0
37440 31165 35054 0
37914 22025 22024 0
23685 29280 29197 0
29874 36671 30486 0
36234 37838 36777 0
23210 35408 30876 0
31593 31595 37332 0
37466 31593 37332 0
37914 22024 35837 0
25259 25258 26017 0
25259 26017 36089 0
35993 35542 35541 0
37496 26088 30251 0
29035 24631 27302 0
35642 25345 37568 0
32044 32046 37161 0
37548 38076 37636 0
37373 37372 38077 0
37703 36063 35898 0
37733 22932 37680 0
37734 37733 37680 0
31645 24614 24613 0
31645 24613 37547 0
33573 28280 28282 0
25402 28810 25403 0
35800 38016 26207 0
37942 32044 37232 0
38078 23667 23666 0
26909 28809 25437 0
37113 37140 37257 0
34575 32791 34574 0
32830 38023 37718 0
32832 38023 32830 0
37863 37813 32276 0
32891 30555 31757 0
37244 36175 37245 0
38062 28085 37724 0
38079 37415 38080 0
37458 37457 37325 0
24080 37675 24078 0
29932 23210 29933 0
28631 28630 32045 0
35021 37172 26906 0
35061 30978 35062 0
34819 35114 35115 0
38080 37415 37803 0
36958 37808 37810 0
27869 37406 38081 0
28231 37650 37797 0
38082 37805 34854 0
36556 30092 37708 0
38083 34253 34805 0
38084 38085 34427 0
29049 29048 34588 0
35226 36848 37839 0
37419 25581 37653 0
37731 24470 35546 0
29566 37519 29567 0
23978 23977 24414 0
33142 37107 37258 0
37934 32464 36755 0
34007 26873 26872 0
37844 32248 36864 0
31302 28921 38086 0
31699 31698 36525 0
37599 25503 37824 0
37962 37703 31523 0
37021 30749 38087 0
38087 30749 30748 0
34964 38088 23296 0
36447 27553 36667 0
36056 37481 37839 0
24413 32495 38032 0
37830 37625 37624 0
35955 26339 28794 0
36759 26339 35955 0
37280 27934 37228 0
28248 28249 38089 0
30945 36845 37343 0
38090 28405 28408 0
36861 36863 37369 0
35273 37138 30076 0
37553 36543 37143 0
27011 26806 27012 0
33745 38091 30154 0
38055 38092 37716 0
37918 30071 37922 0
29250 31522 25686 0
35267 35767 37977 0
31332 35374 31185 0
36466 35269 35823 0
28012 31562 38093 0
38094 36290 37926 0
38094 36522 36290 0
25452 25454 26899 0
25413 37744 25411 0
37143 32863 37553 0
37462 36668 36667 0
38095 23668 30275 0
37691 25345 35642 0
36409 27011 28288 0
38058 35595 31759 0
38058 23690 35595 0
24272 27628 27630 0
38096 33757 36542 0
35156 35964 36974 0
36433 24814 37447 0
31796 31797 32157 0
24610 37597 37443 0
35958 28860 38097 0
30861 32108 37569 0
36235 36037 36236 0
37805 37623 37233 0
24958 30725 34046 0
24188 23409 25799 0
25411 34594 34593 0
29035 37588 32170 0
37315 23703 23702 0
31998 38098 36605 0
33310 23728 28652 0
37368 27588 37886 0
37176 37344 38099 0
34512 36388 36266 0
36517 24891 35693 0
27606 30289 33194 0
35635 34662 25925 0
33439 33441 34101 0
37161 32046 37341 0
38100 29518 37689 0
29115 29114 36813 0
23047 31165 23048 0
36702 36701 38066 0
25781 36293 24316 0
37146 37148 35802 0
37514 35165 38101 0
38102 38103 30140 0
38103 38102 36607 0
33723 36965 38104 0
38105 27091 24001 0
25503 27927 37824 0
35675 31593 37466 0
27130 31677 31775 0
37641 37557 37558 0
22525 27769 27247 0
38106 35097 31214 0
29156 35738 31443 0
22242 27635 22244 0
34865 37237 34866 0
30556 32120 30557 0
32939 26087 26086 0
28741 32939 26086 0
35442 27400 36021 0
28522 32826 37400 0
38107 36629 38108 0
22028 38109 23075 0
33294 33296 30232 0
28563 28562 29351 0
27690 37327 30074 0
31947 30529 31945 0
22700 27368 22698 0
38093 31562 33289 0
37215 36584 29068 0
38006 37785 37768 0
38110 32215 37654 0
31859 31858 36987 0
38111 29168 38112 0
37805 31183 37723 0
32633 37193 32631 0
27553 36447 27554 0
32216 36517 35693 0
31890 37724 37825 0
37825 37724 27318 0
33520 36695 33521 0
24979 23628 23627 0
30608 30520 30519 0
32704 36868 32705 0
31292 36781 37846 0
22168 29355 26148 0
29344 32615 33880 0
30502 30501 28461 0
37658 33256 33258 0
35366 38113 38114 0
36979 36023 22268 0
37160 34964 37122 0
28074 38115 26110 0
37111 36561 38116 0
28199 23297 37576 0
37980 35626 27104 0
33028 37942 37941 0
38117 35993 34421 0
33186 37840 33184 0
38118 37345 30340 0
38118 30340 37562 0
36068 38119 38120 0
36068 38121 38119 0
36369 34383 35888 0
36495 36369 35888 0
37653 34967 34966 0
23831 38122 38123 0
32756 37869 32757 0
36030 36249 31560 0
22014 22016 33839 0
31170 37507 31171 0
33410 30701 30430 0
25469 31309 26223 0
37003 38124 37002 0
25321 37306 37931 0
36323 26307 26309 0
37508 30085 24201 0
33189 38125 38126 0
33280 36363 38127 0
37842 37697 34401 0
38128 27869 38081 0
34008 27318 31522 0
31947 31946 31189 0
24495 37447 32791 0
32748 28613 32749 0
37987 35677 32574 0
37261 38129 37850 0
37661 29891 37453 0
28506 28505 33576 0
37332 36905 36120 0
38130 34294 37128 0
34294 34293 37128 0
29197 33783 31432 0
29197 31432 23685 0
30877 35408 30466 0
30466 32603 30877 0
38131 38132 38133 0
28994 27421 25522 0
35380 37007 37697 0
38134 38135 38136 0
30649 37257 30650 0
38137 37418 37601 0
24391 29192 24392 0
37143 37724 32863 0
38138 24435 33844 0
35872 33092 35873 0
34615 33705 36069 0
37104 37328 36383 0
37674 37821 30711 0
38139 38140 35072 0
38141 24413 24415 0
37822 37059 30643 0
37059 35868 30643 0
37226 35518 36927 0
32672 37875 29311 0
31425 33006 38142 0
30994 30996 33363 0
37595 38143 34303 0
22048 23018 26486 0
33881 32615 32614 0
32580 38144 34754 0
32950 37799 38145 0
33257 37732 33258 0
38146 33280 38127 0
37395 38147 38148 0
35166 32741 30568 0
24203 25761 25760 0
37790 37003 37848 0
38149 34548 34235 0
38149 34235 29986 0
37579 37396 37395 0
31356 38071 34816 0
38150 34566 31707 0
28407 37874 37743 0
26802 28407 37743 0
37905 33545 38151 0
23504 34025 34024 0
27246 37459 34226 0
36960 37019 36579 0
33999 38088 34807 0
38152 37803 37664 0
38153 38154 35119 0
31189 31946 31186 0
32983 31212 32586 0
37954 22296 35097 0
